-9.646360397338867188e+00,-9.754849433898925781e+00,nan,nan,-9.694892883300781250e+00,nan,-9.698353767395019531e+00,-9.552764892578125000e+00,-9.766030311584472656e+00,-9.659971237182617188e+00,nan,-9.614906311035156250e+00,nan,-9.559868812561035156e+00,nan,-9.509456634521484375e+00,-9.603679656982421875e+00,-9.367733001708984375e+00,-9.641952514648437500e+00,nan,-9.502843856811523438e+00,-9.475888252258300781e+00,-9.469512939453125000e+00,-9.434206962585449219e+00,-9.350502014160156250e+00,-9.385278701782226562e+00,-9.411722183227539062e+00,-9.347698211669921875e+00,-9.379061698913574219e+00,-9.331027984619140625e+00,-9.259328842163085938e+00,-9.259164810180664062e+00,-9.311567306518554688e+00,-9.282732963562011719e+00,-9.172665596008300781e+00,-9.240334510803222656e+00,-9.103643417358398438e+00,-9.148518562316894531e+00,-9.092686653137207031e+00,-8.958372116088867188e+00,-9.039463996887207031e+00,-8.986227035522460938e+00,-8.926206588745117188e+00,nan,-8.738513946533203125e+00,-8.866136550903320312e+00,-8.837642669677734375e+00,-8.807442665100097656e+00,-8.776725769042968750e+00,-8.763028144836425781e+00,nan,-8.771469116210937500e+00,-8.742863655090332031e+00,-8.711269378662109375e+00,-8.674237251281738281e+00,-8.652379035949707031e+00,-8.638347625732421875e+00,-8.607379913330078125e+00,-8.585750579833984375e+00,-8.570126533508300781e+00,-8.563701629638671875e+00,-8.572329521179199219e+00,-8.544062614440917969e+00,-8.551198005676269531e+00,-8.516073226928710938e+00,-8.478014945983886719e+00,-8.457745552062988281e+00,-8.451387405395507812e+00,-8.413460731506347656e+00,-8.415462493896484375e+00,-8.436073303222656250e+00,-8.196361541748046875e+00,-8.182798385620117188e+00,-8.150503158569335938e+00,-8.403618812561035156e+00,-8.297751426696777344e+00,-8.270027160644531250e+00,-8.237666130065917969e+00,-8.207550048828125000e+00,-8.224646568298339844e+00,-8.238012313842773438e+00,-8.216206550598144531e+00,-8.139208793640136719e+00,-8.168832778930664062e+00,-8.000636100769042969e+00,-8.157575607299804688e+00,-8.184036254882812500e+00,-8.163394927978515625e+00,-8.117134094238281250e+00,-8.156593322753906250e+00,-8.082703590393066406e+00,-8.074975967407226562e+00,-8.113189697265625000e+00,-8.093610763549804688e+00,-8.077714920043945312e+00,-8.060842514038085938e+00,-8.037443161010742188e+00,-8.018720626831054688e+00,-8.002101898193359375e+00,-7.979827404022216797e+00,-7.957309722900390625e+00,-7.931895732879638672e+00,-6.704109191894531250e+00,-6.694756507873535156e+00,-6.761765003204345703e+00,-7.864152431488037109e+00,-7.851545810699462891e+00,-7.841557979583740234e+00,-7.801279544830322266e+00,-7.803734302520751953e+00,-7.776665687561035156e+00,-7.779891490936279297e+00,-7.777510166168212891e+00,-7.774737358093261719e+00,-7.770780563354492188e+00,-7.762423992156982422e+00,-7.647625923156738281e+00,-7.748405456542968750e+00,-7.737303733825683594e+00,-7.731811523437500000e+00,-7.724211692810058594e+00,-7.719873428344726562e+00,-6.873006343841552734e+00,-7.633088111877441406e+00,-7.083514690399169922e+00,-7.665193080902099609e+00,-7.676345825195312500e+00,-7.670175552368164062e+00,-7.651329040527343750e+00,-7.657691001892089844e+00,-7.653577804565429688e+00,-6.234261512756347656e+00,-6.853848457336425781e+00,-7.044947624206542969e+00,-7.513477802276611328e+00,-7.614359378814697266e+00,-7.621828079223632812e+00,-6.782570838928222656e+00,-6.831851959228515625e+00,-7.232521057128906250e+00,-7.401513099670410156e+00,-7.568079471588134766e+00,-7.557652473449707031e+00,-7.548567295074462891e+00,-7.354097843170166016e+00,-7.478337764739990234e+00,-7.517386913299560547e+00,-7.524696350097656250e+00,-7.450086593627929688e+00,-7.454117298126220703e+00,-7.502091407775878906e+00,-7.467322826385498047e+00,-7.453530788421630859e+00,-7.454655647277832031e+00,-7.400856018066406250e+00,-7.426202774047851562e+00,-7.428499221801757812e+00,-7.424321651458740234e+00,-7.439391613006591797e+00,-7.408421039581298828e+00,-7.408525466918945312e+00,-7.396119117736816406e+00,-7.401525020599365234e+00,-7.294281005859375000e+00,-7.301077842712402344e+00
-9.734255790710449219e+00,-9.529061317443847656e+00,nan,nan,-9.753340721130371094e+00,nan,-9.700323104858398438e+00,nan,-9.585330009460449219e+00,nan,nan,-9.627446174621582031e+00,nan,-9.579300880432128906e+00,-9.665275573730468750e+00,-9.519365310668945312e+00,-9.527988433837890625e+00,-9.433658599853515625e+00,-9.442029953002929688e+00,-9.385324478149414062e+00,-9.430213928222656250e+00,-9.442897796630859375e+00,-9.331869125366210938e+00,-9.564458847045898438e+00,-9.416732788085937500e+00,-9.413066864013671875e+00,nan,-9.370883941650390625e+00,-9.264516830444335938e+00,-9.318871498107910156e+00,-9.269435882568359375e+00,-9.246524810791015625e+00,-9.234741210937500000e+00,-9.192726135253906250e+00,-9.229769706726074219e+00,-9.148069381713867188e+00,-9.106920242309570312e+00,-9.178432464599609375e+00,-9.088415145874023438e+00,-9.160724639892578125e+00,-9.054492950439453125e+00,-9.134825706481933594e+00,-8.916312217712402344e+00,-8.919338226318359375e+00,-8.949691772460937500e+00,-8.862346649169921875e+00,-8.860692977905273438e+00,-8.955367088317871094e+00,nan,-8.947983741760253906e+00,-8.833453178405761719e+00,-8.798584938049316406e+00,-8.752342224121093750e+00,-8.720108985900878906e+00,-8.699995994567871094e+00,-8.690918922424316406e+00,-8.672759056091308594e+00,-8.620720863342285156e+00,-8.594941139221191406e+00,-8.595702171325683594e+00,-8.560955047607421875e+00,-8.500017166137695312e+00,-8.522969245910644531e+00,-8.479856491088867188e+00,-8.469787597656250000e+00,-8.427270889282226562e+00,-8.406278610229492188e+00,-8.397289276123046875e+00,-8.444352149963378906e+00,-8.411474227905273438e+00,-8.418102264404296875e+00,-8.382627487182617188e+00,-8.180871009826660156e+00,-8.160162925720214844e+00,-8.370920181274414062e+00,-8.315554618835449219e+00,-8.280755996704101562e+00,-8.259806632995605469e+00,-8.363273620605468750e+00,-8.340878486633300781e+00,nan,-8.088160514831542969e+00,-8.299975395202636719e+00,-8.266957283020019531e+00,-8.188670158386230469e+00,-8.176177024841308594e+00,-8.201117515563964844e+00,-8.208857536315917969e+00,-8.190083503723144531e+00,-8.184473037719726562e+00,-8.165090560913085938e+00,-8.140600204467773438e+00,-8.139644622802734375e+00,-8.116430282592773438e+00,-8.094841957092285156e+00,-8.073909759521484375e+00,-8.053395271301269531e+00,-8.034781455993652344e+00,-8.013709068298339844e+00,-7.993339538574218750e+00,-7.971319198608398438e+00,-7.953194618225097656e+00,-7.923646450042724609e+00,-7.912148952484130859e+00,-7.894821166992187500e+00,-7.883756160736083984e+00,-7.869938373565673828e+00,-7.860462665557861328e+00,-7.817338466644287109e+00,-7.816004276275634766e+00,-7.812608242034912109e+00,-7.823204994201660156e+00,-7.791565895080566406e+00,-7.783681392669677734e+00,-7.781674861907958984e+00,-7.777579307556152344e+00,-7.770681381225585938e+00,-7.763310909271240234e+00,nan,nan,-7.729555606842041016e+00,-7.730146408081054688e+00,-6.881698608398437500e+00,-6.955827713012695312e+00,-7.054950237274169922e+00,-7.694821834564208984e+00,-7.689859867095947266e+00,-7.683916091918945312e+00,-7.680679798126220703e+00,-7.675800800323486328e+00,-7.677191734313964844e+00,-6.854631423950195312e+00,-6.912566184997558594e+00,-7.492592811584472656e+00,-7.489748001098632812e+00,-6.880073070526123047e+00,-6.785514354705810547e+00,-6.660413742065429688e+00,-6.878385066986083984e+00,-7.158993721008300781e+00,-7.313140392303466797e+00,-7.438488006591796875e+00,-7.573600769042968750e+00,-7.568044662475585938e+00,-7.428956031799316406e+00,-7.546067714691162109e+00,-7.565381050109863281e+00,-7.551170825958251953e+00,-7.550893306732177734e+00,-7.513764858245849609e+00,-7.491991996765136719e+00,-7.508653640747070312e+00,-7.438084602355957031e+00,-7.467992305755615234e+00,-7.459713459014892578e+00,-7.448032855987548828e+00,-7.447519302368164062e+00,-7.446784019470214844e+00,-7.422163486480712891e+00,-7.434718608856201172e+00,-7.435264110565185547e+00,-7.430895805358886719e+00,-7.400664806365966797e+00,-7.438319206237792969e+00,-7.330285549163818359e+00
nan,nan,nan,nan,nan,nan,nan,-9.512862205505371094e+00,nan,-9.660622596740722656e+00,nan,-9.629929542541503906e+00,-9.457573890686035156e+00,-9.596054077148437500e+00,-9.444972991943359375e+00,-9.342878341674804688e+00,-9.545770645141601562e+00,-9.475859642028808594e+00,-9.429548263549804688e+00,-9.391208648681640625e+00,-9.469635009765625000e+00,-9.402509689331054688e+00,-9.406948089599609375e+00,-9.346247673034667969e+00,-9.294643402099609375e+00,-9.310470581054687500e+00,nan,-9.305563926696777344e+00,-9.229915618896484375e+00,-9.349223136901855469e+00,-9.237431526184082031e+00,-9.205116271972656250e+00,-9.283854484558105469e+00,-9.208389282226562500e+00,-9.130633354187011719e+00,-9.138104438781738281e+00,-9.070465087890625000e+00,-9.150606155395507812e+00,-9.108927726745605469e+00,-9.094016075134277344e+00,-9.118719100952148438e+00,-8.899511337280273438e+00,-9.072571754455566406e+00,-9.088015556335449219e+00,-9.051074981689453125e+00,-9.009261131286621094e+00,-9.014081001281738281e+00,-8.942537307739257812e+00,nan,-8.962125778198242188e+00,-8.865165710449218750e+00,nan,-8.865296363830566406e+00,-8.686436653137207031e+00,-8.675937652587890625e+00,nan,-8.656021118164062500e+00,-8.630727767944335938e+00,nan,nan,-8.575664520263671875e+00,-8.489968299865722656e+00,-8.497561454772949219e+00,nan,-8.407976150512695312e+00,-8.381727218627929688e+00,-8.350699424743652344e+00,-8.340658187866210938e+00,-8.335521697998046875e+00,-8.397598266601562500e+00,-8.431483268737792969e+00,-8.472833633422851562e+00,-8.452490806579589844e+00,-8.409695625305175781e+00,-8.354550361633300781e+00,-8.345057487487792969e+00,-8.425618171691894531e+00,nan,-8.379077911376953125e+00,-8.372879981994628906e+00,nan,-8.337224960327148438e+00,-8.327152252197265625e+00,nan,-8.200321197509765625e+00,-8.197738647460937500e+00,-8.248771667480468750e+00,-8.226564407348632812e+00,-8.182225227355957031e+00,-8.195437431335449219e+00,-8.170684814453125000e+00,-8.169990539550781250e+00,-8.147812843322753906e+00,-8.123386383056640625e+00,-8.101715087890625000e+00,-8.092163085937500000e+00,-8.074779510498046875e+00,-8.053327560424804688e+00,-8.028861999511718750e+00,-8.012448310852050781e+00,-7.994680404663085938e+00,-7.977388381958007812e+00,-7.943901062011718750e+00,-7.904203891754150391e+00,-7.864465713500976562e+00,-7.881992340087890625e+00,-7.872732162475585938e+00,-7.879710197448730469e+00,-7.835432052612304688e+00,-7.834755420684814453e+00,-7.847702026367187500e+00,-7.822999954223632812e+00,-7.827285766601562500e+00,-7.830381870269775391e+00,-7.798497200012207031e+00,-7.794956684112548828e+00,-7.790570259094238281e+00,-7.791159152984619141e+00,nan,-7.759137630462646484e+00,-7.739664077758789062e+00,-7.728836059570312500e+00,-7.724182605743408203e+00,-7.720051765441894531e+00,-7.719151496887207031e+00,-7.709203720092773438e+00,-7.705456256866455078e+00,-7.697960376739501953e+00,-7.694152355194091797e+00,-7.695053577423095703e+00,-7.025299549102783203e+00,-6.861881256103515625e+00,-7.463276863098144531e+00,-7.478849887847900391e+00,-6.961601257324218750e+00,-6.964100837707519531e+00,-6.795500755310058594e+00,-6.743901729583740234e+00,-6.744597911834716797e+00,-6.726299762725830078e+00,-7.611848831176757812e+00,-7.602241992950439453e+00,-7.583962440490722656e+00,-7.561014175415039062e+00,-7.568795680999755859e+00,-7.588432788848876953e+00,-7.550230503082275391e+00,-7.568299293518066406e+00,-7.546360015869140625e+00,-7.537174224853515625e+00,-7.523005962371826172e+00,-7.523950099945068359e+00,-7.459286212921142578e+00,-7.483861446380615234e+00,-7.486267566680908203e+00,-7.472552299499511719e+00,-7.476667881011962891e+00,-7.473324298858642578e+00,-7.442604541778564453e+00,-7.453053951263427734e+00,-7.453118324279785156e+00,-7.446942806243896484e+00,-7.442571640014648438e+00,-7.433027744293212891e+00,-7.335673332214355469e+00
-9.744186401367187500e+00,nan,nan,nan,-9.633184432983398438e+00,nan,nan,nan,-9.538407325744628906e+00,nan,nan,nan,nan,nan,nan,nan,-9.352952003479003906e+00,-9.424349784851074219e+00,-9.489784240722656250e+00,-9.395053863525390625e+00,nan,-9.413639068603515625e+00,-9.401388168334960938e+00,-9.368288040161132812e+00,nan,-9.347959518432617188e+00,-9.334836006164550781e+00,-9.259573936462402344e+00,-9.233467102050781250e+00,-9.231869697570800781e+00,-9.226786613464355469e+00,-9.153189659118652344e+00,-9.169592857360839844e+00,-9.204048156738281250e+00,-9.118919372558593750e+00,-9.135547637939453125e+00,-9.164090156555175781e+00,-9.129637718200683594e+00,-9.138556480407714844e+00,-9.115911483764648438e+00,nan,-9.151390075683593750e+00,-9.069768905639648438e+00,-9.028197288513183594e+00,-8.987204551696777344e+00,-8.983627319335937500e+00,-8.718461990356445312e+00,-8.963372230529785156e+00,nan,nan,-8.932287216186523438e+00,nan,nan,-8.827469825744628906e+00,nan,-8.853132247924804688e+00,nan,-8.841262817382812500e+00,-8.588572502136230469e+00,-8.553145408630371094e+00,-8.528468132019042969e+00,-8.511150360107421875e+00,-8.479647636413574219e+00,-8.462873458862304688e+00,-8.413616180419921875e+00,-8.411688804626464844e+00,-8.604438781738281250e+00,-8.574938774108886719e+00,-8.541354179382324219e+00,-8.537795066833496094e+00,-8.513497352600097656e+00,-8.518889427185058594e+00,-8.454723358154296875e+00,-8.517274856567382812e+00,-8.374605178833007812e+00,-8.459125518798828125e+00,nan,nan,-8.418178558349609375e+00,-8.388583183288574219e+00,nan,-8.363125801086425781e+00,-8.345046997070312500e+00,nan,-8.215573310852050781e+00,-8.210791587829589844e+00,nan,-8.241725921630859375e+00,-8.219524383544921875e+00,-8.208455085754394531e+00,-8.182679176330566406e+00,-8.183658599853515625e+00,-8.161611557006835938e+00,-8.141093254089355469e+00,-8.128334999084472656e+00,-8.111505508422851562e+00,-8.093959808349609375e+00,-8.071616172790527344e+00,-8.050650596618652344e+00,-8.035065650939941406e+00,-8.016860961914062500e+00,-7.998420715332031250e+00,-7.967714309692382812e+00,-7.943554878234863281e+00,-7.883622646331787109e+00,-7.882382869720458984e+00,-7.869238853454589844e+00,-7.894644260406494141e+00,-7.849910259246826172e+00,-7.850956916809082031e+00,-7.836999893188476562e+00,-7.837312698364257812e+00,-7.834432601928710938e+00,-7.831063270568847656e+00,-7.809764862060546875e+00,-7.808826446533203125e+00,-7.807652950286865234e+00,-7.794654369354248047e+00,-7.779017448425292969e+00,-7.763821125030517578e+00,-7.754898548126220703e+00,-7.743581295013427734e+00,-7.734547615051269531e+00,-7.734026908874511719e+00,-7.734161376953125000e+00,-7.727703094482421875e+00,-7.716652870178222656e+00,-7.716008186340332031e+00,-7.714558124542236328e+00,-6.943614482879638672e+00,-6.854815006256103516e+00,-7.452816009521484375e+00,-7.582639694213867188e+00,-7.600664138793945312e+00,-6.973336696624755859e+00,-7.032493114471435547e+00,-6.999866962432861328e+00,-6.829079627990722656e+00,-7.638484954833984375e+00,-6.990755081176757812e+00,-7.618729591369628906e+00,-7.612898349761962891e+00,-7.604967594146728516e+00,-7.585413932800292969e+00,-7.597427368164062500e+00,-7.569660186767578125e+00,-7.587312221527099609e+00,-7.560134887695312500e+00,-7.581847190856933594e+00,-7.563539028167724609e+00,-7.553841114044189453e+00,-7.530719280242919922e+00,-7.502306461334228516e+00,-7.484879016876220703e+00,-7.516045570373535156e+00,-7.504892826080322266e+00,-7.496030330657958984e+00,-7.497749805450439453e+00,-7.480974674224853516e+00,-7.478044986724853516e+00,-7.476762294769287109e+00,-7.470322132110595703e+00,-7.461427688598632812e+00,-7.479029178619384766e+00,-7.460289478302001953e+00
nan,-9.768049240112304688e+00,nan,nan,-9.765696525573730469e+00,nan,nan,-9.583027839660644531e+00,nan,-9.569625854492187500e+00,-9.590587615966796875e+00,nan,-9.374494552612304688e+00,nan,nan,nan,-9.486753463745117188e+00,-9.475098609924316406e+00,nan,-9.375522613525390625e+00,-9.358527183532714844e+00,nan,-9.377410888671875000e+00,nan,nan,nan,nan,nan,nan,-9.232892990112304688e+00,-9.193162918090820312e+00,-9.178090095520019531e+00,-9.166919708251953125e+00,-9.217123985290527344e+00,-9.142192840576171875e+00,-9.056151390075683594e+00,-9.086399078369140625e+00,-9.128891944885253906e+00,nan,-9.168010711669921875e+00,-9.137302398681640625e+00,-9.069442749023437500e+00,-8.993238449096679688e+00,-8.965682029724121094e+00,-9.001598358154296875e+00,-8.853904724121093750e+00,-8.930308341979980469e+00,nan,nan,-8.978069305419921875e+00,-8.941068649291992188e+00,-8.943284988403320312e+00,-8.900321960449218750e+00,-8.732223510742187500e+00,-8.703322410583496094e+00,-8.676039695739746094e+00,-8.657803535461425781e+00,-8.626150131225585938e+00,-8.596248626708984375e+00,-8.573344230651855469e+00,-8.547937393188476562e+00,-8.513290405273437500e+00,-8.490221023559570312e+00,-8.494094848632812500e+00,-8.466796875000000000e+00,-8.628826141357421875e+00,-8.620664596557617188e+00,-8.624846458435058594e+00,-8.602346420288085938e+00,-8.592832565307617188e+00,-8.557276725769042969e+00,-8.537335395812988281e+00,-8.511288642883300781e+00,-8.537887573242187500e+00,-8.386381149291992188e+00,-8.382717132568359375e+00,nan,-8.458877563476562500e+00,-8.446329116821289062e+00,nan,nan,-8.380341529846191406e+00,-8.376924514770507812e+00,nan,-8.318741798400878906e+00,-8.222933769226074219e+00,nan,-8.262044906616210938e+00,-8.247063636779785156e+00,-8.230591773986816406e+00,-8.206630706787109375e+00,-8.204429626464843750e+00,-8.181591987609863281e+00,-8.160433769226074219e+00,-8.144348144531250000e+00,-8.132347106933593750e+00,-8.109054565429687500e+00,-8.089720726013183594e+00,-8.073500633239746094e+00,-8.054518699645996094e+00,-8.038177490234375000e+00,-8.022684097290039062e+00,-7.984981536865234375e+00,-7.961732864379882812e+00,-7.953509807586669922e+00,-7.869778156280517578e+00,-7.923482894897460938e+00,-7.912432670593261719e+00,-7.869287014007568359e+00,-7.869413375854492188e+00,-7.856215953826904297e+00,-7.853950500488281250e+00,-7.849016666412353516e+00,-7.846321105957031250e+00,-7.842475414276123047e+00,-7.833194732666015625e+00,-7.814414501190185547e+00,-7.805962562561035156e+00,-7.801407814025878906e+00,-7.782238483428955078e+00,-7.771044731140136719e+00,-7.760343074798583984e+00,-7.754791259765625000e+00,-7.756410121917724609e+00,-7.748470306396484375e+00,-7.744565010070800781e+00,-7.742658138275146484e+00,-7.739698410034179688e+00,-7.724707603454589844e+00,-6.936711311340332031e+00,-6.784324169158935547e+00,-6.743515968322753906e+00,-6.740085601806640625e+00,-7.676259994506835938e+00,-7.663619995117187500e+00,-7.673628330230712891e+00,-7.648418426513671875e+00,-7.655218601226806641e+00,-7.655234813690185547e+00,-7.642899513244628906e+00,-7.636644363403320312e+00,-7.626675605773925781e+00,-7.622511863708496094e+00,-7.598867416381835938e+00,-7.614143848419189453e+00,-7.610475540161132812e+00,-7.585508346557617188e+00,-7.598010540008544922e+00,-7.592995166778564453e+00,nan,-7.576295852661132812e+00,-7.540293693542480469e+00,-7.562153339385986328e+00,-7.616053581237792969e+00,-7.534792423248291016e+00,-7.537521839141845703e+00,-7.536718368530273438e+00,-7.522411823272705078e+00,nan,-7.512605190277099609e+00,-7.502807617187500000e+00,-7.501420021057128906e+00,-7.505725383758544922e+00,-7.489620208740234375e+00,-7.487092971801757812e+00
nan,nan,nan,nan,nan,nan,nan,nan,nan,nan,nan,-9.569952011108398438e+00,nan,nan,-9.559285163879394531e+00,-9.464816093444824219e+00,nan,nan,-9.388807296752929688e+00,nan,nan,nan,-9.393156051635742188e+00,nan,nan,-9.284468650817871094e+00,-9.266363143920898438e+00,-9.252635955810546875e+00,-9.216748237609863281e+00,-9.235305786132812500e+00,-9.202360153198242188e+00,-9.218846321105957031e+00,-9.261438369750976562e+00,nan,nan,nan,nan,-9.135545730590820312e+00,-9.120836257934570312e+00,-9.052878379821777344e+00,nan,-8.680347442626953125e+00,-8.987881660461425781e+00,nan,-8.739278793334960938e+00,-8.821392059326171875e+00,-8.822011947631835938e+00,-8.828525543212890625e+00,-8.837376594543457031e+00,-8.792941093444824219e+00,-8.813006401062011719e+00,-8.803727149963378906e+00,-8.776258468627929688e+00,-8.755303382873535156e+00,-8.718439102172851562e+00,-8.695603370666503906e+00,-8.694181442260742188e+00,-8.759958267211914062e+00,-8.754098892211914062e+00,-8.734245300292968750e+00,-8.738862991333007812e+00,-8.746221542358398438e+00,-8.729023933410644531e+00,-8.696965217590332031e+00,-8.706676483154296875e+00,-8.734340667724609375e+00,-8.693549156188964844e+00,-8.673955917358398438e+00,-8.646155357360839844e+00,-8.623879432678222656e+00,nan,-8.619235038757324219e+00,-8.582059860229492188e+00,-8.549271583557128906e+00,-8.535759925842285156e+00,-8.395360946655273438e+00,nan,-8.468427658081054688e+00,-8.464471817016601562e+00,-8.452798843383789062e+00,nan,-8.395339965820312500e+00,-8.379734039306640625e+00,-8.367891311645507812e+00,-8.334129333496093750e+00,-8.232520103454589844e+00,-8.280803680419921875e+00,-8.275645256042480469e+00,-8.270999908447265625e+00,-8.247265815734863281e+00,-8.234365463256835938e+00,-8.223321914672851562e+00,-8.200854301452636719e+00,-8.180011749267578125e+00,-8.164835929870605469e+00,-8.149702072143554688e+00,-8.129776000976562500e+00,-8.110979080200195312e+00,-8.092188835144042969e+00,-8.073577880859375000e+00,-8.058630943298339844e+00,-8.037352561950683594e+00,-8.009839057922363281e+00,-7.974500656127929688e+00,-7.975548744201660156e+00,-7.959835052490234375e+00,-7.943821430206298828e+00,-7.931029319763183594e+00,-7.891265869140625000e+00,-7.888180732727050781e+00,-7.873490810394287109e+00,-7.871633052825927734e+00,-7.864966869354248047e+00,-7.864498138427734375e+00,-7.858912944793701172e+00,-7.849368572235107422e+00,-7.834107875823974609e+00,-7.825506687164306641e+00,-7.808974266052246094e+00,-7.798987865447998047e+00,-7.787648677825927734e+00,-7.778351306915283203e+00,-7.719938278198242188e+00,-7.769066810607910156e+00,-7.765872478485107422e+00,-7.763924121856689453e+00,-7.763892173767089844e+00,-7.647974967956542969e+00,-7.680818080902099609e+00,-6.999703884124755859e+00,-7.314221382141113281e+00,-7.033263683319091797e+00,-6.750825405120849609e+00,-7.719805717468261719e+00,-7.724702358245849609e+00,-7.717821598052978516e+00,-7.719414234161376953e+00,-7.719968318939208984e+00,-7.720803260803222656e+00,-7.705020427703857422e+00,-7.701562881469726562e+00,-7.691202163696289062e+00,-6.475333213806152344e+00,-6.446180343627929688e+00,-7.681586742401123047e+00,-7.653479576110839844e+00,-7.638705253601074219e+00,-7.640280246734619141e+00,nan,-7.624455928802490234e+00,-7.601186275482177734e+00,nan,nan,-7.701635360717773438e+00,-7.696186065673828125e+00,-7.674921989440917969e+00,-7.556947708129882812e+00,nan,nan,-7.547691345214843750e+00,-7.526346683502197266e+00,-7.525182723999023438e+00,-7.625724792480468750e+00,nan,-7.520982265472412109e+00
-9.889332771301269531e+00,-9.887882232666015625e+00,nan,nan,nan,nan,nan,-9.707942962646484375e+00,-9.697481155395507812e+00,nan,-9.659614562988281250e+00,-9.685209274291992188e+00,nan,nan,nan,-9.590850830078125000e+00,-9.469223976135253906e+00,-9.495225906372070312e+00,nan,-9.513983726501464844e+00,nan,-9.456977844238281250e+00,nan,-9.360247611999511719e+00,-9.353677749633789062e+00,-9.196304321289062500e+00,-9.301523208618164062e+00,-9.285398483276367188e+00,-8.946423530578613281e+00,nan,-9.319976806640625000e+00,-9.175432205200195312e+00,nan,-9.219881057739257812e+00,-9.119318008422851562e+00,-9.158118247985839844e+00,-9.105738639831542969e+00,-9.175893783569335938e+00,-9.014359474182128906e+00,-8.771268844604492188e+00,-8.961670875549316406e+00,-8.688186645507812500e+00,nan,-8.829453468322753906e+00,-8.879818916320800781e+00,-8.864859580993652344e+00,-8.875789642333984375e+00,-8.861668586730957031e+00,-8.844513893127441406e+00,-8.867271423339843750e+00,-8.857887268066406250e+00,-8.817242622375488281e+00,-8.795562744140625000e+00,-8.780122756958007812e+00,-8.889595031738281250e+00,-8.793493270874023438e+00,-8.804714202880859375e+00,-8.798553466796875000e+00,-8.784204483032226562e+00,-8.777012825012207031e+00,-8.791286468505859375e+00,-8.770957946777343750e+00,-8.737216949462890625e+00,nan,-8.778080940246582031e+00,-8.752168655395507812e+00,-8.730087280273437500e+00,-8.706960678100585938e+00,nan,nan,nan,-8.629264831542968750e+00,-8.590291023254394531e+00,-8.578859329223632812e+00,nan,-8.401601791381835938e+00,-8.398486137390136719e+00,-8.496521949768066406e+00,-8.472393989562988281e+00,-8.446734428405761719e+00,nan,nan,-8.394762039184570312e+00,-8.387678146362304688e+00,-8.357369422912597656e+00,-8.244051933288574219e+00,-8.309148788452148438e+00,-8.298476219177246094e+00,-8.287491798400878906e+00,-8.263221740722656250e+00,-8.248405456542968750e+00,-8.239381790161132812e+00,-8.215625762939453125e+00,-8.199400901794433594e+00,-8.185958862304687500e+00,-8.169537544250488281e+00,-8.151824951171875000e+00,-8.132636070251464844e+00,-8.116445541381835938e+00,-8.095972061157226562e+00,-8.077980995178222656e+00,-8.055376052856445312e+00,-8.035997390747070312e+00,-7.973016738891601562e+00,-7.945806503295898438e+00,-7.978212356567382812e+00,-7.965208053588867188e+00,-7.947344303131103516e+00,-7.907448768615722656e+00,-7.903103828430175781e+00,-7.891325473785400391e+00,-7.886178016662597656e+00,-7.879221439361572266e+00,-7.876579761505126953e+00,-7.867047786712646484e+00,-7.860149383544921875e+00,-7.843418121337890625e+00,-7.837409973144531250e+00,-7.815726757049560547e+00,-7.812552452087402344e+00,-7.799118041992187500e+00,-7.791260719299316406e+00,-7.757131099700927734e+00,-7.787415504455566406e+00,-7.101430416107177734e+00,-7.076030731201171875e+00,-6.999440193176269531e+00,-7.051273822784423828e+00,-7.092412471771240234e+00,-7.745635509490966797e+00,-7.759873867034912109e+00,-7.565315723419189453e+00,-7.044346809387207031e+00,-7.017469406127929688e+00,-7.744263648986816406e+00,-7.741461277008056641e+00,-7.739951610565185547e+00,-7.735523700714111328e+00,-7.730926513671875000e+00,-7.723955154418945312e+00,-7.721456050872802734e+00,-6.412606716156005859e+00,-6.371994495391845703e+00,-7.073394298553466797e+00,-7.544858455657958984e+00,-7.623431205749511719e+00,-7.644394397735595703e+00,-7.640036106109619141e+00,-7.636110305786132812e+00,-7.622608661651611328e+00,-7.609856128692626953e+00,-7.601725578308105469e+00,-7.638459205627441406e+00,-7.746937274932861328e+00,-7.631919384002685547e+00,-7.600289344787597656e+00,nan,nan,nan,nan,-7.555399417877197266e+00,-7.542688846588134766e+00,nan,nan,-7.547255516052246094e+00
nan,nan,nan,nan,nan,nan,nan,nan,nan,nan,-9.703158378601074219e+00,-9.746431350708007812e+00,-9.692456245422363281e+00,-9.677432060241699219e+00,nan,nan,-9.583124160766601562e+00,-9.600369453430175781e+00,nan,-9.569923400878906250e+00,-9.564783096313476562e+00,-9.443624496459960938e+00,-9.414297103881835938e+00,-9.398336410522460938e+00,-9.414250373840332031e+00,-9.379214286804199219e+00,-9.363750457763671875e+00,-8.987090110778808594e+00,-9.359498977661132812e+00,-9.257466316223144531e+00,-9.257282257080078125e+00,-9.392616271972656250e+00,-9.279306411743164062e+00,-9.233683586120605469e+00,-9.220600128173828125e+00,-9.178616523742675781e+00,-9.205554008483886719e+00,-9.125280380249023438e+00,-9.019114494323730469e+00,-8.739612579345703125e+00,-8.998635292053222656e+00,-8.900197029113769531e+00,-8.984950065612792969e+00,-8.927050590515136719e+00,-8.958465576171875000e+00,-8.937708854675292969e+00,-8.969275474548339844e+00,-8.954772949218750000e+00,-8.909526824951171875e+00,-8.887450218200683594e+00,-8.868430137634277344e+00,-8.949559211730957031e+00,-8.944591522216796875e+00,-8.905070304870605469e+00,-8.897382736206054688e+00,-8.892566680908203125e+00,-8.852307319641113281e+00,-8.837380409240722656e+00,-8.841608047485351562e+00,-8.838058471679687500e+00,-8.824312210083007812e+00,-8.783796310424804688e+00,nan,-8.811265945434570312e+00,-8.800769805908203125e+00,-8.774464607238769531e+00,-8.731449127197265625e+00,-8.720849990844726562e+00,nan,nan,nan,-8.658200263977050781e+00,-8.616886138916015625e+00,-8.591935157775878906e+00,nan,-8.411629676818847656e+00,-8.414810180664062500e+00,-8.529652595520019531e+00,-8.498028755187988281e+00,-8.473215103149414062e+00,nan,-8.439395904541015625e+00,-8.417789459228515625e+00,-8.405495643615722656e+00,-8.361084938049316406e+00,-8.257872581481933594e+00,-8.259527206420898438e+00,-8.322402954101562500e+00,-8.304539680480957031e+00,-8.287949562072753906e+00,-8.270994186401367188e+00,-8.265036582946777344e+00,-8.243989944458007812e+00,-8.220750808715820312e+00,-8.202013969421386719e+00,-8.193819046020507812e+00,-8.171367645263671875e+00,-8.152852058410644531e+00,-8.138662338256835938e+00,-8.118018150329589844e+00,-8.097774505615234375e+00,-8.074808120727539062e+00,-8.063204765319824219e+00,-8.024636268615722656e+00,-7.961976051330566406e+00,-7.995387077331542969e+00,-7.978961944580078125e+00,-7.967223167419433594e+00,-7.919631958007812500e+00,-7.914847373962402344e+00,-7.896908760070800781e+00,-7.895199775695800781e+00,-7.889778137207031250e+00,-7.889485359191894531e+00,-7.879261016845703125e+00,-7.868482112884521484e+00,-7.866662502288818359e+00,-7.845815658569335938e+00,-7.835183143615722656e+00,-7.822362899780273438e+00,-7.812605857849121094e+00,-7.807658672332763672e+00,-7.804341793060302734e+00,-7.804598808288574219e+00,-7.129788875579833984e+00,-7.062383174896240234e+00,nan,-7.776041507720947266e+00,-7.782836914062500000e+00,-7.773872852325439453e+00,-7.770545482635498047e+00,-7.769259452819824219e+00,-7.769139289855957031e+00,-7.768135070800781250e+00,-7.765024662017822266e+00,-7.760416030883789062e+00,-7.756743907928466797e+00,-7.752373695373535156e+00,-7.746717453002929688e+00,-7.747362613677978516e+00,-7.742005348205566406e+00,-6.455664634704589844e+00,-6.329621315002441406e+00,-6.389626979827880859e+00,-7.246434211730957031e+00,-7.643162250518798828e+00,-7.679803848266601562e+00,-7.656703948974609375e+00,-7.647297859191894531e+00,-7.624226570129394531e+00,-7.628726482391357422e+00,-7.618013858795166016e+00,-7.626743793487548828e+00,-7.626194953918457031e+00,-7.599767684936523438e+00,-7.612335681915283203e+00,-7.620339870452880859e+00,-7.635177612304687500e+00,-7.651566505432128906e+00,-7.599821090698242188e+00,-7.582543849945068359e+00,nan,nan,-7.584082126617431641e+00,-7.582348346710205078e+00
-9.944667816162109375e+00,-9.933132171630859375e+00,-9.912035942077636719e+00,nan,nan,-9.580368041992187500e+00,nan,nan,-9.679003715515136719e+00,-9.937132835388183594e+00,-9.804399490356445312e+00,-9.763613700866699219e+00,nan,-9.816099166870117188e+00,-9.645017623901367188e+00,nan,-9.572959899902343750e+00,-9.549977302551269531e+00,-9.527550697326660156e+00,-9.512643814086914062e+00,-9.481256484985351562e+00,-9.460659027099609375e+00,-9.406112670898437500e+00,-9.432913780212402344e+00,-9.455802917480468750e+00,-9.436578750610351562e+00,-9.510509490966796875e+00,-9.397367477416992188e+00,-9.450324058532714844e+00,-9.387529373168945312e+00,-9.363090515136718750e+00,-9.291908264160156250e+00,-9.305425643920898438e+00,-9.312371253967285156e+00,-9.280438423156738281e+00,-9.246619224548339844e+00,-9.242607116699218750e+00,-9.214472770690917969e+00,-8.969731330871582031e+00,-8.981719970703125000e+00,-8.996307373046875000e+00,-9.015816688537597656e+00,-9.050350189208984375e+00,-9.033212661743164062e+00,-9.028563499450683594e+00,-9.016160011291503906e+00,-8.991798400878906250e+00,-8.986334800720214844e+00,nan,-9.070806503295898438e+00,-9.006587028503417969e+00,-9.014445304870605469e+00,-8.993482589721679688e+00,-8.934397697448730469e+00,nan,nan,-8.904893875122070312e+00,-8.907888412475585938e+00,-8.914951324462890625e+00,-8.889674186706542969e+00,-8.871149063110351562e+00,nan,-8.855098724365234375e+00,-8.844723701477050781e+00,-8.819677352905273438e+00,-8.796120643615722656e+00,-8.773262977600097656e+00,-8.748513221740722656e+00,nan,nan,-8.694364547729492188e+00,-8.678634643554687500e+00,-8.648236274719238281e+00,-8.629147529602050781e+00,-8.603605270385742188e+00,nan,-8.429392814636230469e+00,-8.545248985290527344e+00,-8.516263008117675781e+00,-8.501543045043945312e+00,-8.474820137023925781e+00,nan,-8.424849510192871094e+00,-8.416042327880859375e+00,-8.396982192993164062e+00,-8.374630928039550781e+00,-8.271427154541015625e+00,-8.337985038757324219e+00,-8.330255508422851562e+00,-8.307684898376464844e+00,-8.253450393676757812e+00,-8.227071762084960938e+00,-8.260893821716308594e+00,-8.241539001464843750e+00,-8.176762580871582031e+00,-8.169145584106445312e+00,-8.193761825561523438e+00,-8.170389175415039062e+00,-8.149546623229980469e+00,-8.131585121154785156e+00,-8.116511344909667969e+00,-8.084553718566894531e+00,-8.074842453002929688e+00,-8.055279731750488281e+00,-8.032442092895507812e+00,-8.015789985656738281e+00,-7.998799324035644531e+00,-7.982268333435058594e+00,-7.935005187988281250e+00,-7.929584026336669922e+00,-7.914737701416015625e+00,-7.917214393615722656e+00,-7.909314155578613281e+00,-7.895003318786621094e+00,-7.888940811157226562e+00,-7.880621910095214844e+00,-7.876886367797851562e+00,-7.861454486846923828e+00,-7.849908828735351562e+00,-7.841200351715087891e+00,-7.828758239746093750e+00,-7.825263023376464844e+00,-7.742074489593505859e+00,-7.821472644805908203e+00,-7.812628746032714844e+00,-7.805016040802001953e+00,-7.551033496856689453e+00,-7.786742687225341797e+00,-7.806731224060058594e+00,-7.795479774475097656e+00,-7.787493705749511719e+00,-7.781165599822998047e+00,-7.777186393737792969e+00,-7.779664039611816406e+00,-7.778450489044189453e+00,-7.771687984466552734e+00,-7.763600349426269531e+00,-7.759079456329345703e+00,-7.760506629943847656e+00,-7.755247116088867188e+00,-7.757770061492919922e+00,-7.755930423736572266e+00,-7.755759239196777344e+00,-6.320344924926757812e+00,-7.738076686859130859e+00,-7.732974529266357422e+00,-7.724800586700439453e+00,-7.710613250732421875e+00,-7.719971656799316406e+00,-7.681954860687255859e+00,-7.693695545196533203e+00,-7.694633007049560547e+00,nan,-7.671739101409912109e+00,-7.670053482055664062e+00,-7.641811847686767578e+00,-7.654579639434814453e+00,-7.652060508728027344e+00,-7.654214859008789062e+00,-7.629484176635742188e+00,-7.616222858428955078e+00,-7.622647762298583984e+00,-7.630077362060546875e+00,-7.621612548828125000e+00,-7.597301483154296875e+00
nan,-9.749707221984863281e+00,nan,nan,-9.938474655151367188e+00,-9.593938827514648438e+00,-9.739960670471191406e+00,nan,nan,-9.756774902343750000e+00,nan,nan,nan,-9.755114555358886719e+00,-9.655657768249511719e+00,-9.613658905029296875e+00,-9.572679519653320312e+00,-9.566474914550781250e+00,-9.529685974121093750e+00,-9.527854919433593750e+00,-9.502464294433593750e+00,-9.518505096435546875e+00,-9.506368637084960938e+00,-9.502889633178710938e+00,-9.538375854492187500e+00,-9.461953163146972656e+00,-9.564243316650390625e+00,-9.463476181030273438e+00,-9.393724441528320312e+00,-9.374771118164062500e+00,-9.435064315795898438e+00,-9.276005744934082031e+00,-9.296026229858398438e+00,-9.335153579711914062e+00,-9.271404266357421875e+00,-9.248127937316894531e+00,-9.240091323852539062e+00,-9.265012741088867188e+00,-9.172653198242187500e+00,-9.161461830139160156e+00,-9.204663276672363281e+00,-9.063612937927246094e+00,-9.063531875610351562e+00,-9.089833259582519531e+00,-9.071743965148925781e+00,-9.031893730163574219e+00,-8.999546051025390625e+00,-8.997794151306152344e+00,-9.122446060180664062e+00,-9.095052719116210938e+00,-8.973875045776367188e+00,nan,-9.078112602233886719e+00,-9.070193290710449219e+00,-9.048631668090820312e+00,-8.983157157897949219e+00,-8.987293243408203125e+00,-8.956969261169433594e+00,-8.935532569885253906e+00,-8.930447578430175781e+00,nan,-8.768313407897949219e+00,-8.797744750976562500e+00,-8.872791290283203125e+00,-8.845457077026367188e+00,-8.816597938537597656e+00,-8.794036865234375000e+00,nan,nan,-8.756670951843261719e+00,-8.728184700012207031e+00,-8.701920509338378906e+00,-8.675606727600097656e+00,-8.650598526000976562e+00,-8.618995666503906250e+00,nan,-8.444460868835449219e+00,-8.565979957580566406e+00,-8.541160583496093750e+00,-8.520631790161132812e+00,-8.492502212524414062e+00,nan,-8.449915885925292969e+00,-8.438413619995117188e+00,nan,-8.390254020690917969e+00,-8.288052558898925781e+00,-8.358145713806152344e+00,-8.348645210266113281e+00,-8.329038619995117188e+00,nan,-8.226107597351074219e+00,-8.275951385498046875e+00,-8.251675605773925781e+00,-8.251582145690917969e+00,-8.165891647338867188e+00,-8.210381507873535156e+00,-8.189418792724609375e+00,-8.168671607971191406e+00,-8.150571823120117188e+00,-8.134641647338867188e+00,-8.113001823425292969e+00,-8.084171295166015625e+00,-8.053180694580078125e+00,-8.051689147949218750e+00,-8.034584045410156250e+00,-8.013795852661132812e+00,-7.997517585754394531e+00,-7.952827453613281250e+00,-7.945052146911621094e+00,-7.942245483398437500e+00,-7.931505203247070312e+00,-7.921722888946533203e+00,-7.914290904998779297e+00,-7.902450561523437500e+00,-7.898210048675537109e+00,-7.893752098083496094e+00,-7.893356800079345703e+00,-7.859013557434082031e+00,-7.859668254852294922e+00,-7.848784923553466797e+00,-7.842963695526123047e+00,-7.837398529052734375e+00,-7.841587066650390625e+00,-7.833201408386230469e+00,-7.828325271606445312e+00,-7.809865474700927734e+00,-7.815804004669189453e+00,-7.817408084869384766e+00,-7.821422576904296875e+00,-7.817480564117431641e+00,-7.814688682556152344e+00,-7.809224605560302734e+00,-7.806515216827392578e+00,-7.803479194641113281e+00,-7.775673389434814453e+00,-7.787253379821777344e+00,-7.771019458770751953e+00,-7.765442848205566406e+00,-7.764472007751464844e+00,-7.771017551422119141e+00,-7.767591953277587891e+00,-7.774237155914306641e+00,-6.452677726745605469e+00,-7.757036685943603516e+00,-7.751604557037353516e+00,-7.756213665008544922e+00,-7.736265659332275391e+00,-7.743015289306640625e+00,-7.742843151092529297e+00,-7.717796325683593750e+00,-7.725523948669433594e+00,-7.734561443328857422e+00,-7.703390598297119141e+00,-7.686100482940673828e+00,nan,-7.664704322814941406e+00,-7.667506694793701172e+00,-7.672442436218261719e+00,-7.650752544403076172e+00,-7.635405063629150391e+00,-7.639037609100341797e+00,-7.634076118469238281e+00,-7.652043819427490234e+00,-7.630673408508300781e+00
nan,nan,nan,-9.931019783020019531e+00,nan,nan,nan,-9.552909851074218750e+00,-9.550454139709472656e+00,-9.623189926147460938e+00,-9.546692848205566406e+00,-9.879269599914550781e+00,-9.706892013549804688e+00,-9.681553840637207031e+00,-9.649148941040039062e+00,-9.578381538391113281e+00,-9.601406097412109375e+00,-9.615250587463378906e+00,-9.613532066345214844e+00,-9.573942184448242188e+00,-9.571453094482421875e+00,-9.548078536987304688e+00,-9.509469032287597656e+00,-9.521959304809570312e+00,-9.479446411132812500e+00,-9.459791183471679688e+00,-9.515748977661132812e+00,-9.517274856567382812e+00,-9.396295547485351562e+00,-9.385945320129394531e+00,-9.361693382263183594e+00,-9.330958366394042969e+00,-9.314367294311523438e+00,-9.299272537231445312e+00,-9.272684097290039062e+00,-9.220247268676757812e+00,-9.235334396362304688e+00,-9.208337783813476562e+00,-9.195930480957031250e+00,-9.241992950439453125e+00,-9.145757675170898438e+00,-9.120286941528320312e+00,-9.186894416809082031e+00,-9.174289703369140625e+00,-9.129594802856445312e+00,-9.113784790039062500e+00,-9.010381698608398438e+00,-8.993786811828613281e+00,-8.990150451660156250e+00,-9.115337371826171875e+00,-9.160694122314453125e+00,-9.143346786499023438e+00,-9.120371818542480469e+00,-9.095049858093261719e+00,-9.070596694946289062e+00,nan,-9.009680747985839844e+00,nan,-9.009343147277832031e+00,-8.998437881469726562e+00,-8.974092483520507812e+00,-8.941901206970214844e+00,-8.919504165649414062e+00,-8.898486137390136719e+00,-8.877643585205078125e+00,nan,nan,nan,nan,nan,-8.741775512695312500e+00,-8.713115692138671875e+00,-8.695312500000000000e+00,-8.676840782165527344e+00,-8.646309852600097656e+00,nan,-8.456089973449707031e+00,nan,-8.543565750122070312e+00,-8.536688804626464844e+00,-8.514622688293457031e+00,nan,-8.466084480285644531e+00,-8.454031944274902344e+00,-8.448991775512695312e+00,-8.417487144470214844e+00,-8.301490783691406250e+00,-8.377974510192871094e+00,-8.370898246765136719e+00,-8.345610618591308594e+00,-8.320990562438964844e+00,-8.233315467834472656e+00,-8.231532096862792969e+00,-8.283962249755859375e+00,-8.266583442687988281e+00,-8.176533699035644531e+00,-8.182924270629882812e+00,-8.207956314086914062e+00,-8.186779022216796875e+00,-8.168809890747070312e+00,-8.152246475219726562e+00,-8.130675315856933594e+00,-8.097351074218750000e+00,-8.078486442565917969e+00,-8.069468498229980469e+00,-8.051577568054199219e+00,-8.033810615539550781e+00,-8.019166946411132812e+00,-8.009358406066894531e+00,-7.981859683990478516e+00,-7.958823204040527344e+00,-7.949316024780273438e+00,-7.936955928802490234e+00,-7.933699607849121094e+00,-7.924188613891601562e+00,-7.913286209106445312e+00,-7.907599449157714844e+00,-7.905991077423095703e+00,-7.907805919647216797e+00,-7.898258209228515625e+00,-7.899106025695800781e+00,-7.867707729339599609e+00,-7.852883338928222656e+00,-7.857002735137939453e+00,-7.850541114807128906e+00,-7.850472927093505859e+00,-7.848055362701416016e+00,-7.842135429382324219e+00,-7.832801342010498047e+00,-7.832082748413085938e+00,-7.832885265350341797e+00,-7.825800418853759766e+00,-7.820233345031738281e+00,-7.816320419311523438e+00,-7.815725803375244141e+00,-7.812627315521240234e+00,-7.801194667816162109e+00,-7.797643184661865234e+00,-7.793041229248046875e+00,-7.800461769104003906e+00,-7.312161445617675781e+00,-7.772716999053955078e+00,-7.222720146179199219e+00,-7.202739715576171875e+00,-7.210765361785888672e+00,-7.769663333892822266e+00,-7.764477252960205078e+00,-7.754407405853271484e+00,-7.764875411987304688e+00,-7.761435508728027344e+00,-7.740123748779296875e+00,-7.746143817901611328e+00,-7.725111484527587891e+00,-7.715399742126464844e+00,-7.715835571289062500e+00,-7.714522838592529297e+00,-7.689363956451416016e+00,-7.696496009826660156e+00,-7.690493106842041016e+00,-7.676048278808593750e+00,nan,-7.656387329101562500e+00,-7.661495208740234375e+00,-7.672148704528808594e+00,-7.662823677062988281e+00
-9.835840225219726562e+00,nan,nan,nan,nan,-9.740951538085937500e+00,nan,nan,-9.595452308654785156e+00,-9.448029518127441406e+00,-9.427180290222167969e+00,-9.743256568908691406e+00,-9.672429084777832031e+00,-9.680381774902343750e+00,-9.645677566528320312e+00,-9.663618087768554688e+00,-9.639435768127441406e+00,-9.644258499145507812e+00,-9.625463485717773438e+00,-9.766666412353515625e+00,-9.570329666137695312e+00,-9.561185836791992188e+00,-9.564033508300781250e+00,-9.602596282958984375e+00,-9.663681030273437500e+00,-9.485664367675781250e+00,-9.449203491210937500e+00,-9.459323883056640625e+00,-9.406937599182128906e+00,-9.521955490112304688e+00,-9.502688407897949219e+00,-9.511443138122558594e+00,-9.347179412841796875e+00,-9.494224548339843750e+00,-9.276752471923828125e+00,-9.278483390808105469e+00,-9.307970046997070312e+00,-9.434062957763671875e+00,-9.328716278076171875e+00,-9.275289535522460938e+00,-9.138443946838378906e+00,-9.203171730041503906e+00,-9.145624160766601562e+00,-9.123429298400878906e+00,-9.093770027160644531e+00,-9.076843261718750000e+00,-9.041069984436035156e+00,-9.027878761291503906e+00,-8.987587928771972656e+00,-8.980007171630859375e+00,-9.192762374877929688e+00,-9.159199714660644531e+00,-9.136201858520507812e+00,nan,-9.094284057617187500e+00,nan,nan,-9.017970085144042969e+00,-9.032381057739257812e+00,-9.011798858642578125e+00,-8.990938186645507812e+00,-8.959928512573242188e+00,-8.939856529235839844e+00,-8.920417785644531250e+00,-8.897273063659667969e+00,nan,nan,nan,nan,nan,-8.751015663146972656e+00,-8.732161521911621094e+00,-8.707406997680664062e+00,-8.687015533447265625e+00,-8.664638519287109375e+00,-8.638476371765136719e+00,-8.466179847717285156e+00,-8.471786499023437500e+00,-8.579785346984863281e+00,-8.553295135498046875e+00,-8.524368286132812500e+00,-8.520192146301269531e+00,-8.493360519409179688e+00,-8.481365203857421875e+00,nan,-8.433881759643554688e+00,-8.312117576599121094e+00,-8.314414978027343750e+00,-8.393738746643066406e+00,-8.363296508789062500e+00,-8.357911109924316406e+00,-8.331030845642089844e+00,-8.243443489074707031e+00,-8.298431396484375000e+00,-8.284981727600097656e+00,-8.262137413024902344e+00,-8.191802978515625000e+00,-8.228734016418457031e+00,-8.207788467407226562e+00,-8.189499855041503906e+00,-8.172840118408203125e+00,-8.143778800964355469e+00,-8.126152038574218750e+00,-8.109521865844726562e+00,-8.075397491455078125e+00,-8.072290420532226562e+00,-8.054953575134277344e+00,-8.054389953613281250e+00,-8.016383171081542969e+00,-7.993693828582763672e+00,-7.978636741638183594e+00,-7.971528053283691406e+00,-7.960092544555664062e+00,-7.956939220428466797e+00,-7.944405078887939453e+00,-7.931335926055908203e+00,-7.923534393310546875e+00,-7.912402629852294922e+00,-7.911181449890136719e+00,-7.911915779113769531e+00,-7.938135623931884766e+00,-7.917613506317138672e+00,-7.882929325103759766e+00,-7.875106811523437500e+00,-7.868862628936767578e+00,-7.869547367095947266e+00,-7.864331722259521484e+00,-7.859533786773681641e+00,-7.849541664123535156e+00,-7.847916603088378906e+00,-7.850868701934814453e+00,-7.844480514526367188e+00,-7.842559337615966797e+00,-7.841100692749023438e+00,-7.832289695739746094e+00,-7.824874877929687500e+00,-7.824176311492919922e+00,-7.821219444274902344e+00,-7.820588588714599609e+00,-7.811932563781738281e+00,-7.794453144073486328e+00,-6.988297939300537109e+00,-6.929604530334472656e+00,-7.067375183105468750e+00,-7.477571487426757812e+00,-7.775896072387695312e+00,-7.791980266571044922e+00,-7.747213840484619141e+00,-7.779847621917724609e+00,-7.753700256347656250e+00,-7.757133960723876953e+00,-7.764752388000488281e+00,-7.750828266143798828e+00,-7.735594749450683594e+00,-7.742375850677490234e+00,-7.746171474456787109e+00,-7.709193706512451172e+00,-7.708673477172851562e+00,-7.715865135192871094e+00,-7.691899299621582031e+00,-7.676962852478027344e+00,-7.681843757629394531e+00,-7.683865547180175781e+00,-7.670217990875244141e+00,-7.650881290435791016e+00
nan,nan,-9.784574508666992188e+00,-9.811511993408203125e+00,-1.008764076232910156e+01,nan,-9.561100006103515625e+00,-9.862557411193847656e+00,-9.481534004211425781e+00,-9.459987640380859375e+00,-9.727487564086914062e+00,-9.657640457153320312e+00,-9.703786849975585938e+00,-9.730621337890625000e+00,-9.719236373901367188e+00,-9.711229324340820312e+00,-9.679790496826171875e+00,-9.648658752441406250e+00,-9.631741523742675781e+00,-9.641572952270507812e+00,-9.778381347656250000e+00,-9.592421531677246094e+00,-9.613453865051269531e+00,-9.577465057373046875e+00,-9.563367843627929688e+00,-9.675362586975097656e+00,-9.644903182983398438e+00,-9.474084854125976562e+00,-9.419242858886718750e+00,-9.500637054443359375e+00,-9.468707084655761719e+00,-9.582336425781250000e+00,-9.587608337402343750e+00,-9.560084342956542969e+00,-9.350798606872558594e+00,-9.519359588623046875e+00,-9.485704421997070312e+00,-9.429594993591308594e+00,-9.222687721252441406e+00,-9.205760002136230469e+00,-9.347854614257812500e+00,-9.363238334655761719e+00,-9.111573219299316406e+00,-9.101656913757324219e+00,-9.095251083374023438e+00,-9.073802947998046875e+00,-9.067942619323730469e+00,-9.101547241210937500e+00,-9.275406837463378906e+00,-8.980436325073242188e+00,-8.976607322692871094e+00,-9.189092636108398438e+00,-9.166981697082519531e+00,-9.144764900207519531e+00,nan,-9.072537422180175781e+00,-8.817648887634277344e+00,nan,nan,nan,nan,nan,-8.954278945922851562e+00,-8.927871704101562500e+00,-8.905627250671386719e+00,-8.882783889770507812e+00,nan,nan,nan,nan,nan,nan,-8.701122283935546875e+00,-8.702868461608886719e+00,-8.683339118957519531e+00,nan,nan,-8.483368873596191406e+00,-8.585710525512695312e+00,-8.579957962036132812e+00,-8.559204101562500000e+00,nan,-8.507832527160644531e+00,-8.501163482666015625e+00,nan,-8.442746162414550781e+00,-8.437874794006347656e+00,-8.322587013244628906e+00,-8.403483390808105469e+00,-8.378053665161132812e+00,-8.372453689575195312e+00,-8.344810485839843750e+00,-8.251229286193847656e+00,-8.261874198913574219e+00,-8.302865028381347656e+00,-8.289784431457519531e+00,-8.198514938354492188e+00,-8.245522499084472656e+00,-8.226663589477539062e+00,-8.210291862487792969e+00,-8.192655563354492188e+00,-8.160329818725585938e+00,-8.155674934387207031e+00,-8.115816116333007812e+00,-8.107706069946289062e+00,-8.095807075500488281e+00,-8.091429710388183594e+00,-8.051843643188476562e+00,-8.024627685546875000e+00,-8.009860992431640625e+00,-7.998299598693847656e+00,-7.984376907348632812e+00,-7.977995395660400391e+00,-7.969580173492431641e+00,-7.959619998931884766e+00,-7.946640014648437500e+00,-7.940170288085937500e+00,-7.901976585388183594e+00,-7.923214435577392578e+00,-7.910466670989990234e+00,-7.911430835723876953e+00,-7.924605369567871094e+00,-7.931530952453613281e+00,-7.926904201507568359e+00,-7.894686698913574219e+00,-7.881928920745849609e+00,-7.878796577453613281e+00,-7.875290870666503906e+00,-7.870181083679199219e+00,-7.875075340270996094e+00,-7.870195865631103516e+00,-7.865769386291503906e+00,-7.863817214965820312e+00,-7.860839366912841797e+00,-7.856870174407958984e+00,-7.852057456970214844e+00,-7.851731777191162109e+00,-7.851370811462402344e+00,-7.841392517089843750e+00,-7.844323635101318359e+00,-7.762856006622314453e+00,-6.572752475738525391e+00,-6.442994117736816406e+00,-7.013425350189208984e+00,-7.073403358459472656e+00,-7.663544178009033203e+00,-7.719245433807373047e+00,-7.768640041351318359e+00,-7.792397975921630859e+00,-7.778356552124023438e+00,-7.777430057525634766e+00,-7.783513069152832031e+00,-7.142283439636230469e+00,-7.752142906188964844e+00,-7.759727478027343750e+00,-7.739973545074462891e+00,-7.738465785980224609e+00,-7.733901500701904297e+00,-7.731449127197265625e+00,-7.726368427276611328e+00,-7.701577663421630859e+00,-7.696566581726074219e+00,-7.705416679382324219e+00,-7.705032348632812500e+00,-7.666869163513183594e+00
-1.018357372283935547e+01,-9.677965164184570312e+00,-9.765724182128906250e+00,-9.776983261108398438e+00,-9.952261924743652344e+00,-9.894015312194824219e+00,-9.845465660095214844e+00,-9.856338500976562500e+00,-9.795147895812988281e+00,-9.788704872131347656e+00,-9.794950485229492188e+00,-9.783020973205566406e+00,-9.981052398681640625e+00,-9.765562057495117188e+00,-9.738727569580078125e+00,-9.903271675109863281e+00,-9.721879959106445312e+00,-9.657917022705078125e+00,-9.636195182800292969e+00,-9.655815124511718750e+00,-9.606193542480468750e+00,-9.653421401977539062e+00,-9.572010040283203125e+00,-9.532650947570800781e+00,-9.578067779541015625e+00,-9.536827087402343750e+00,-9.532402038574218750e+00,-9.552522659301757812e+00,-9.443426132202148438e+00,-9.491214752197265625e+00,-9.647960662841796875e+00,-9.606441497802734375e+00,-9.613674163818359375e+00,-9.577096939086914062e+00,-9.553477287292480469e+00,-9.527121543884277344e+00,-9.516796112060546875e+00,-9.486848831176757812e+00,-9.454183578491210938e+00,-9.191274642944335938e+00,-9.205285072326660156e+00,-9.176141738891601562e+00,-9.377059936523437500e+00,-9.290390014648437500e+00,-9.089040756225585938e+00,-9.089833259582519531e+00,-9.072109222412109375e+00,-9.058007240295410156e+00,nan,-9.260326385498046875e+00,-8.971770286560058594e+00,-8.970092773437500000e+00,-9.187144279479980469e+00,-9.161451339721679688e+00,-7.939126014709472656e+00,nan,nan,nan,nan,nan,nan,nan,nan,-8.946386337280273438e+00,-8.923094749450683594e+00,-8.895477294921875000e+00,-8.866824150085449219e+00,nan,nan,nan,nan,nan,-8.711390495300292969e+00,-8.712264060974121094e+00,-8.702206611633300781e+00,nan,nan,-8.499193191528320312e+00,-8.619950294494628906e+00,-8.596115112304687500e+00,nan,nan,-8.525565147399902344e+00,-8.520010948181152344e+00,nan,-8.474245071411132812e+00,-8.459396362304687500e+00,-8.333151817321777344e+00,-8.339298248291015625e+00,-8.397706031799316406e+00,-8.390106201171875000e+00,-8.370495796203613281e+00,-8.315025329589843750e+00,-8.263855934143066406e+00,-8.328688621520996094e+00,-8.305397987365722656e+00,-8.288079261779785156e+00,-8.267709732055664062e+00,-8.249393463134765625e+00,-8.232000350952148438e+00,-8.212834358215332031e+00,-8.182878494262695312e+00,-8.173425674438476562e+00,-8.111293792724609375e+00,-8.132792472839355469e+00,-8.135573387145996094e+00,-8.078907012939453125e+00,-8.053934097290039062e+00,-8.036548614501953125e+00,-8.026779174804687500e+00,-8.012313842773437500e+00,-7.970096588134765625e+00,-7.996280193328857422e+00,-7.985902786254882812e+00,-7.972099304199218750e+00,-7.966067314147949219e+00,-7.956051349639892578e+00,-7.941989898681640625e+00,-7.932729721069335938e+00,-7.924264907836914062e+00,-7.922893047332763672e+00,-7.929321289062500000e+00,-7.953419208526611328e+00,-7.953683376312255859e+00,-7.935056209564208984e+00,-7.905584812164306641e+00,-7.897705554962158203e+00,-7.893626689910888672e+00,-7.889739036560058594e+00,-7.895923614501953125e+00,-7.890592575073242188e+00,-7.886112689971923828e+00,-7.886229515075683594e+00,-7.883598327636718750e+00,-7.879069805145263672e+00,-7.880173206329345703e+00,-7.881818294525146484e+00,-7.875975131988525391e+00,-7.878870010375976562e+00,-7.874279499053955078e+00,-7.868533134460449219e+00,-6.958042144775390625e+00,-7.291908740997314453e+00,-7.416665077209472656e+00,-7.647099018096923828e+00,-7.717996597290039062e+00,-7.678852558135986328e+00,-7.731462478637695312e+00,-7.727323055267333984e+00,-7.732021331787109375e+00,-7.755341053009033203e+00,-7.794384956359863281e+00,-7.766264915466308594e+00,-7.770484447479248047e+00,-7.778692722320556641e+00,-7.768210887908935547e+00,-7.773401737213134766e+00,-7.755166053771972656e+00,-7.758010864257812500e+00,-7.736306190490722656e+00,-7.730696678161621094e+00,-7.721269130706787109e+00,-7.717111587524414062e+00,-7.723328113555908203e+00,-7.708865165710449219e+00
-9.841846466064453125e+00,-9.838892936706542969e+00,-9.843958854675292969e+00,-9.947321891784667969e+00,-9.981308937072753906e+00,-9.923224449157714844e+00,-9.927751541137695312e+00,-9.884432792663574219e+00,-9.825094223022460938e+00,-9.888991355895996094e+00,-9.816653251647949219e+00,-9.828518867492675781e+00,-9.810810089111328125e+00,-9.792205810546875000e+00,-9.915066719055175781e+00,-9.924948692321777344e+00,-9.710709571838378906e+00,-9.886444091796875000e+00,-9.688475608825683594e+00,-9.641231536865234375e+00,-9.612364768981933594e+00,-9.609407424926757812e+00,-9.765906333923339844e+00,-9.781442642211914062e+00,-9.759210586547851562e+00,-9.539958953857421875e+00,-9.700775146484375000e+00,-9.495283126831054688e+00,-9.663585662841796875e+00,-9.656414985656738281e+00,-9.453123092651367188e+00,-9.383487701416015625e+00,-9.414666175842285156e+00,-9.463182449340820312e+00,-9.553264617919921875e+00,-9.523462295532226562e+00,-9.532756805419921875e+00,-9.499519348144531250e+00,-9.476014137268066406e+00,-9.441925048828125000e+00,-9.249407768249511719e+00,-9.164729118347167969e+00,-9.380876541137695312e+00,-9.367477416992187500e+00,-9.317264556884765625e+00,-8.791196823120117188e+00,-9.323456764221191406e+00,-9.313788414001464844e+00,-9.301381111145019531e+00,-9.267482757568359375e+00,-9.253007888793945312e+00,-8.977050781250000000e+00,-8.971780776977539062e+00,-9.177338600158691406e+00,-9.141204833984375000e+00,-9.128004074096679688e+00,nan,-9.070152282714843750e+00,-9.032295227050781250e+00,-8.844289779663085938e+00,nan,nan,-8.942807197570800781e+00,-8.944264411926269531e+00,-8.942035675048828125e+00,-8.915146827697753906e+00,-8.893896102905273438e+00,-8.866824150085449219e+00,nan,nan,nan,nan,-8.770071029663085938e+00,-8.740079879760742188e+00,-8.722968101501464844e+00,-8.666159629821777344e+00,nan,-8.508936882019042969e+00,-8.512842178344726562e+00,-8.618059158325195312e+00,nan,nan,-8.552053451538085938e+00,-8.536458969116210938e+00,nan,-8.492758750915527344e+00,-8.486910820007324219e+00,nan,-8.348386764526367188e+00,-8.425597190856933594e+00,-8.399319648742675781e+00,-8.380746841430664062e+00,-8.369448661804199219e+00,-8.282032012939453125e+00,-8.271848678588867188e+00,-8.328890800476074219e+00,-8.271653175354003906e+00,-8.269438743591308594e+00,-8.269093513488769531e+00,-8.252263069152832031e+00,-8.233265876770019531e+00,-8.215840339660644531e+00,-8.153459548950195312e+00,-8.185204505920410156e+00,-7.807119846343994141e+00,nan,-8.084569931030273438e+00,-8.069822311401367188e+00,-8.064224243164062500e+00,-8.043320655822753906e+00,-8.034754753112792969e+00,-8.026536941528320312e+00,-8.018736839294433594e+00,-8.004811286926269531e+00,-7.994006156921386719e+00,-7.979655742645263672e+00,-7.974463462829589844e+00,-7.965233325958251953e+00,-7.946246147155761719e+00,-7.947852134704589844e+00,-7.942811489105224609e+00,-7.942404747009277344e+00,-7.955404281616210938e+00,-7.975298404693603516e+00,-7.965664863586425781e+00,-7.948005199432373047e+00,-7.919701576232910156e+00,-7.922955513000488281e+00,-7.902203083038330078e+00,-7.918077945709228516e+00,-7.912240982055664062e+00,-7.909677505493164062e+00,-7.909013271331787109e+00,-7.906150341033935547e+00,-7.904627799987792969e+00,-7.902576446533203125e+00,-7.899729251861572266e+00,-7.898061752319335938e+00,-7.899938106536865234e+00,-7.898212909698486328e+00,-7.886870861053466797e+00,-7.738115787506103516e+00,-7.874835968017578125e+00,-7.840425014495849609e+00,-7.840036392211914062e+00,-7.802266120910644531e+00,-7.823185443878173828e+00,-7.772818565368652344e+00,-7.713293075561523438e+00,-7.704653263092041016e+00,-7.760125160217285156e+00,-7.753488063812255859e+00,-7.737972259521484375e+00,-7.750078678131103516e+00,-7.757912635803222656e+00,-7.753487586975097656e+00,-7.756258964538574219e+00,-7.763576507568359375e+00,-7.744713783264160156e+00,-7.738521575927734375e+00,-7.738131046295166016e+00,-7.732420921325683594e+00,-7.736634731292724609e+00,-7.733935832977294922e+00,-7.703178882598876953e+00
-9.830694198608398438e+00,-9.896944046020507812e+00,-9.981489181518554688e+00,-1.002204895019531250e+01,-9.995047569274902344e+00,-9.983337402343750000e+00,-9.919847488403320312e+00,-9.931366920471191406e+00,-9.859172821044921875e+00,-9.842374801635742188e+00,-9.808028221130371094e+00,-9.825926780700683594e+00,-9.784597396850585938e+00,-9.808658599853515625e+00,-9.776191711425781250e+00,-9.917972564697265625e+00,-9.906218528747558594e+00,-9.703886032104492188e+00,-9.706081390380859375e+00,-9.681632041931152344e+00,-9.645576477050781250e+00,-9.602289199829101562e+00,-9.597332000732421875e+00,-9.755374908447265625e+00,-9.728758811950683594e+00,-9.555992126464843750e+00,-9.520650863647460938e+00,-9.801883697509765625e+00,-9.695199012756347656e+00,-9.670097351074218750e+00,-9.421418190002441406e+00,-9.384902000427246094e+00,-9.401338577270507812e+00,-9.351118087768554688e+00,-9.406158447265625000e+00,-9.560452461242675781e+00,-9.556228637695312500e+00,-9.521103858947753906e+00,-9.471212387084960938e+00,-9.456794738769531250e+00,-9.463960647583007812e+00,-8.886308670043945312e+00,-9.340410232543945312e+00,-9.177760124206542969e+00,-8.065643310546875000e+00,-8.064151763916015625e+00,-9.273912429809570312e+00,-9.311891555786132812e+00,-9.279526710510253906e+00,-9.244826316833496094e+00,-9.247283935546875000e+00,-9.236860275268554688e+00,-8.650319099426269531e+00,-8.962723731994628906e+00,-9.164272308349609375e+00,-9.139752388000488281e+00,-9.101694107055664062e+00,-9.068222999572753906e+00,-8.880662918090820312e+00,nan,nan,nan,nan,-8.967679977416992188e+00,-8.959547042846679688e+00,-8.936520576477050781e+00,-8.909208297729492188e+00,-8.760429382324218750e+00,nan,nan,nan,nan,-8.750668525695800781e+00,-8.759506225585937500e+00,-8.736226081848144531e+00,nan,nan,nan,-8.524245262145996094e+00,-8.638446807861328125e+00,nan,nan,-8.583307266235351562e+00,-8.563330650329589844e+00,nan,-8.519620895385742188e+00,-8.496533393859863281e+00,-8.454620361328125000e+00,-8.351984024047851562e+00,-8.357167243957519531e+00,-8.431019783020019531e+00,-8.405023574829101562e+00,-8.333762168884277344e+00,-8.387876510620117188e+00,-8.276262283325195312e+00,-8.280719757080078125e+00,-8.329856872558593750e+00,-8.276829719543457031e+00,-8.279594421386718750e+00,-8.272206306457519531e+00,-8.243760108947753906e+00,-8.229013442993164062e+00,-8.216716766357421875e+00,-8.208614349365234375e+00,-8.179119110107421875e+00,-8.122671127319335938e+00,-8.102512359619140625e+00,-8.092470169067382812e+00,-8.079105377197265625e+00,-8.067560195922851562e+00,-8.053352355957031250e+00,-8.043647766113281250e+00,-8.033641815185546875e+00,-8.027615547180175781e+00,-8.016790390014648438e+00,-8.000270843505859375e+00,-7.993704319000244141e+00,-7.987696647644042969e+00,-7.977578163146972656e+00,-7.971334934234619141e+00,-7.964888572692871094e+00,-7.965874671936035156e+00,-7.966895103454589844e+00,-7.995473861694335938e+00,-7.989969730377197266e+00,-7.973119258880615234e+00,-7.957764625549316406e+00,-7.942513465881347656e+00,-7.940976619720458984e+00,-7.936276435852050781e+00,-7.927497863769531250e+00,-7.922088623046875000e+00,-7.927813529968261719e+00,-7.926941871643066406e+00,-7.925143718719482422e+00,-7.920534610748291016e+00,-7.911920547485351562e+00,-7.914088726043701172e+00,-7.910332679748535156e+00,-7.910713672637939453e+00,-7.911540031433105469e+00,-7.899583339691162109e+00,-7.892520427703857422e+00,-7.855953216552734375e+00,-7.876566410064697266e+00,-7.863084793090820312e+00,-7.836799144744873047e+00,-7.843750476837158203e+00,-7.818713188171386719e+00,-7.806690216064453125e+00,-7.773428916931152344e+00,-7.646325588226318359e+00,-7.760864734649658203e+00,-7.787678718566894531e+00,-7.756257057189941406e+00,-7.666617870330810547e+00,-7.733081340789794922e+00,-7.718473911285400391e+00,-7.738517761230468750e+00,-7.735446929931640625e+00,-7.742924213409423828e+00,-7.740482330322265625e+00,-7.742340564727783203e+00,-7.712118625640869141e+00,-7.704268455505371094e+00
-9.922142028808593750e+00,-9.932964324951171875e+00,-1.015879726409912109e+01,-9.974107742309570312e+00,-1.001745510101318359e+01,-9.995903968811035156e+00,-9.980147361755371094e+00,-9.932196617126464844e+00,-9.929203033447265625e+00,-9.887597084045410156e+00,-9.821425437927246094e+00,-9.831534385681152344e+00,-9.797861099243164062e+00,-9.767116546630859375e+00,-9.790256500244140625e+00,-9.939409255981445312e+00,-9.948963165283203125e+00,-9.716342926025390625e+00,-9.699698448181152344e+00,-9.757628440856933594e+00,-9.739834785461425781e+00,-9.829036712646484375e+00,-9.613725662231445312e+00,-9.620111465454101562e+00,-9.552266120910644531e+00,-9.524819374084472656e+00,nan,-9.502733230590820312e+00,-9.699613571166992188e+00,-9.455435752868652344e+00,-9.689992904663085938e+00,-9.617086410522460938e+00,-9.485453605651855469e+00,-9.538926124572753906e+00,-9.497215270996093750e+00,-9.333603858947753906e+00,-9.515731811523437500e+00,-9.483547210693359375e+00,-9.524930953979492188e+00,-9.493268013000488281e+00,-9.458065032958984375e+00,-8.526837348937988281e+00,-8.941879272460937500e+00,-9.265995025634765625e+00,-9.217885017395019531e+00,-9.209022521972656250e+00,-9.303328514099121094e+00,-9.287042617797851562e+00,-9.145664215087890625e+00,-7.344150066375732422e+00,-9.250305175781250000e+00,-9.237234115600585938e+00,-9.231490135192871094e+00,-8.964612007141113281e+00,-8.964402198791503906e+00,-8.965708732604980469e+00,nan,-8.933122634887695312e+00,-8.710213661193847656e+00,-8.570796966552734375e+00,nan,nan,nan,-8.991971969604492188e+00,-8.981826782226562500e+00,-8.957643508911132812e+00,-8.935155868530273438e+00,-8.907653808593750000e+00,-8.856178283691406250e+00,nan,nan,nan,nan,-8.781636238098144531e+00,-8.766920089721679688e+00,-8.693499565124511719e+00,nan,-8.701091766357421875e+00,-8.533932685852050781e+00,-8.537726402282714844e+00,nan,-8.625936508178710938e+00,-8.606247901916503906e+00,-8.580536842346191406e+00,-8.565668106079101562e+00,-8.455160140991210938e+00,nan,-8.493016242980957031e+00,-8.489325523376464844e+00,-8.371315956115722656e+00,-8.443855285644531250e+00,-8.431159973144531250e+00,-8.344687461853027344e+00,-8.398864746093750000e+00,-8.371409416198730469e+00,-8.295438766479492188e+00,-8.347353935241699219e+00,-8.296986579895019531e+00,-8.310507774353027344e+00,-8.297746658325195312e+00,-8.285446166992187500e+00,-8.273001670837402344e+00,-8.241163253784179688e+00,-8.218808174133300781e+00,-8.155328750610351562e+00,-8.131473541259765625e+00,-8.127839088439941406e+00,-8.106842994689941406e+00,-8.103034973144531250e+00,-8.088405609130859375e+00,-8.081027030944824219e+00,-8.059235572814941406e+00,-8.055748939514160156e+00,-8.049082756042480469e+00,-8.036060333251953125e+00,-7.987708091735839844e+00,-8.018409729003906250e+00,-8.006938934326171875e+00,-8.002681732177734375e+00,-7.985738277435302734e+00,-7.983976364135742188e+00,-7.979414939880371094e+00,-7.985134601593017578e+00,-7.999781608581542969e+00,-8.028703689575195312e+00,-8.009381294250488281e+00,-7.980316638946533203e+00,-7.976367473602294922e+00,-7.959090709686279297e+00,-7.960175037384033203e+00,-7.943612098693847656e+00,-7.937790393829345703e+00,-7.931394100189208984e+00,-7.920894622802734375e+00,-7.915167331695556641e+00,-7.928602218627929688e+00,-7.923542022705078125e+00,-7.925105571746826172e+00,-7.918638706207275391e+00,-7.919188499450683594e+00,-7.914130210876464844e+00,-7.872255325317382812e+00,-7.883558750152587891e+00,-7.886012077331542969e+00,-7.873745918273925781e+00,-7.842330932617187500e+00,-7.855396747589111328e+00,-7.859058380126953125e+00,-7.765169143676757812e+00,-7.815747261047363281e+00,-7.810527801513671875e+00,-7.797153472900390625e+00,-7.792145252227783203e+00,-7.780661106109619141e+00,-7.780741214752197266e+00,-7.765901088714599609e+00,-7.764222621917724609e+00,-7.757812023162841797e+00,-7.761541366577148438e+00,-7.746079921722412109e+00,-7.732888698577880859e+00,-7.719471454620361328e+00,-7.707417964935302734e+00,-7.713612556457519531e+00,-7.713427066802978516e+00
-1.020987892150878906e+01,-9.996601104736328125e+00,-1.022002983093261719e+01,-1.004872894287109375e+01,-9.977296829223632812e+00,-1.001327037811279297e+01,-9.996482849121093750e+00,-9.958268165588378906e+00,-9.949335098266601562e+00,-9.928476333618164062e+00,-9.832455635070800781e+00,-9.839249610900878906e+00,-9.824083328247070312e+00,-9.807078361511230469e+00,-9.811429977416992188e+00,-9.822399139404296875e+00,-9.946735382080078125e+00,-9.936077117919921875e+00,-9.707658767700195312e+00,-9.902037620544433594e+00,-9.885488510131835938e+00,-9.861957550048828125e+00,-9.831050872802734375e+00,-9.797989845275878906e+00,-9.601888656616210938e+00,-9.737867355346679688e+00,-9.563674926757812500e+00,-9.819561958312988281e+00,nan,-9.776302337646484375e+00,-9.723719596862792969e+00,-9.615128517150878906e+00,-9.579031944274902344e+00,-9.383516311645507812e+00,-9.413793563842773438e+00,-9.348449707031250000e+00,-9.452075958251953125e+00,-9.544255256652832031e+00,-9.292934417724609375e+00,-9.031385421752929688e+00,-9.464967727661132812e+00,-9.444740295410156250e+00,-9.403480529785156250e+00,-9.404110908508300781e+00,-9.377088546752929688e+00,-9.231564521789550781e+00,-9.199752807617187500e+00,-9.297057151794433594e+00,-9.292369842529296875e+00,-9.288595199584960938e+00,-9.318412780761718750e+00,-9.295000076293945312e+00,-9.264911651611328125e+00,-9.235998153686523438e+00,-8.971889495849609375e+00,-8.972665786743164062e+00,-8.274678230285644531e+00,-8.579477310180664062e+00,nan,nan,nan,-9.020602226257324219e+00,nan,-8.951101303100585938e+00,-9.002008438110351562e+00,-8.979990959167480469e+00,-8.956889152526855469e+00,-8.925224304199218750e+00,nan,nan,nan,nan,-8.830904006958007812e+00,-8.803698539733886719e+00,-8.766608238220214844e+00,nan,nan,-8.730933189392089844e+00,-8.709921836853027344e+00,-8.553888320922851562e+00,nan,-8.642219543457031250e+00,-8.625503540039062500e+00,-8.605064392089843750e+00,-8.582162857055664062e+00,-8.564626693725585938e+00,-8.550944328308105469e+00,-8.526039123535156250e+00,-8.418662071228027344e+00,-8.384606361389160156e+00,-8.395605087280273438e+00,-8.455264091491699219e+00,-8.434033393859863281e+00,-8.418730735778808594e+00,-8.407756805419921875e+00,-8.299453735351562500e+00,-8.308575630187988281e+00,-8.352367401123046875e+00,-8.338079452514648438e+00,-8.324014663696289062e+00,-8.308809280395507812e+00,-8.285135269165039062e+00,-8.258620262145996094e+00,-8.192083358764648438e+00,-8.162153244018554688e+00,-8.153622627258300781e+00,-8.113256454467773438e+00,-8.107665061950683594e+00,-8.124464035034179688e+00,-8.102563858032226562e+00,-8.096601486206054688e+00,-8.079538345336914062e+00,-8.057421684265136719e+00,-8.065586090087890625e+00,-8.056340217590332031e+00,-8.043636322021484375e+00,-8.034437179565429688e+00,-8.029272079467773438e+00,-8.018591880798339844e+00,-7.875951290130615234e+00,-8.008466720581054688e+00,-8.003597259521484375e+00,-8.001845359802246094e+00,-8.016432762145996094e+00,-8.044035911560058594e+00,-7.767739772796630859e+00,nan,-8.008732795715332031e+00,nan,-7.973020076751708984e+00,-7.964180946350097656e+00,-7.949793338775634766e+00,-7.942946434020996094e+00,-7.924465179443359375e+00,-7.911051750183105469e+00,-7.906949996948242188e+00,-7.901390075683593750e+00,-7.898397445678710938e+00,-7.912570476531982422e+00,-7.913230419158935547e+00,-7.912190914154052734e+00,-7.875491619110107422e+00,-7.901053428649902344e+00,-7.899538516998291016e+00,-7.891943931579589844e+00,-7.891479492187500000e+00,-7.866655349731445312e+00,-7.854178905487060547e+00,-7.823688030242919922e+00,-7.845298290252685547e+00,-7.818834304809570312e+00,-7.802261352539062500e+00,-7.796859264373779297e+00,-7.790726661682128906e+00,-7.771703720092773438e+00,-7.744275093078613281e+00,-7.738926887512207031e+00,-7.732432365417480469e+00,-7.737720489501953125e+00,-7.723694801330566406e+00,-7.716716766357421875e+00,-7.719619274139404297e+00,-7.714935302734375000e+00,-7.690180301666259766e+00,-7.677015304565429688e+00
-9.998259544372558594e+00,nan,-1.014576244354248047e+01,-1.016985797882080078e+01,-9.981265068054199219e+00,-1.003672599792480469e+01,-1.001407814025878906e+01,-9.987668037414550781e+00,-9.955371856689453125e+00,-9.911369323730468750e+00,-9.931102752685546875e+00,-9.843286514282226562e+00,-9.827480316162109375e+00,-9.811299324035644531e+00,-9.810053825378417969e+00,-9.846097946166992188e+00,-9.813220024108886719e+00,-9.953445434570312500e+00,-9.939414978027343750e+00,-9.941577911376953125e+00,-9.683964729309082031e+00,-9.886060714721679688e+00,-9.872135162353515625e+00,-9.852516174316406250e+00,-9.832660675048828125e+00,-9.810586929321289062e+00,-9.732461929321289062e+00,-9.716106414794921875e+00,-9.528812408447265625e+00,-9.703146934509277344e+00,-9.696736335754394531e+00,nan,-9.565080642700195312e+00,-9.409659385681152344e+00,-9.370794296264648438e+00,-9.358137130737304688e+00,-9.353584289550781250e+00,-9.326703071594238281e+00,-9.324684143066406250e+00,-9.282272338867187500e+00,-9.477583885192871094e+00,-9.460943222045898438e+00,-9.447523117065429688e+00,-9.423773765563964844e+00,-9.396488189697265625e+00,-9.373423576354980469e+00,-9.170603752136230469e+00,-9.135739326477050781e+00,-9.089510917663574219e+00,-9.277423858642578125e+00,-9.288819313049316406e+00,-9.305526733398437500e+00,-9.280628204345703125e+00,-9.257401466369628906e+00,-9.236222267150878906e+00,-8.975723266601562500e+00,-9.177897453308105469e+00,-9.158576011657714844e+00,-9.092041969299316406e+00,nan,nan,nan,nan,nan,-9.019976615905761719e+00,-9.002078056335449219e+00,-8.975607872009277344e+00,-8.951069831848144531e+00,nan,nan,nan,nan,-8.851979255676269531e+00,-8.818796157836914062e+00,-8.800713539123535156e+00,-8.776457786560058594e+00,nan,-8.741477012634277344e+00,-8.721025466918945312e+00,-8.572102546691894531e+00,-8.640675544738769531e+00,-8.661543846130371094e+00,-8.650577545166015625e+00,nan,nan,-8.582467079162597656e+00,-8.559508323669433594e+00,-8.550259590148925781e+00,-8.526733398437500000e+00,-8.517124176025390625e+00,-8.404700279235839844e+00,-8.480650901794433594e+00,-8.455877304077148438e+00,-8.451546669006347656e+00,-8.423271179199218750e+00,-8.412209510803222656e+00,-8.361993789672851562e+00,-8.358407020568847656e+00,-8.368028640747070312e+00,-8.353536605834960938e+00,-8.307929039001464844e+00,-8.281663894653320312e+00,-8.207353591918945312e+00,-8.188069343566894531e+00,-8.173860549926757812e+00,-8.154048919677734375e+00,-8.137300491333007812e+00,-8.138610839843750000e+00,-8.142231941223144531e+00,-8.123216629028320312e+00,-8.115093231201171875e+00,-8.098775863647460938e+00,-8.086631774902343750e+00,-8.077480316162109375e+00,-8.068035125732421875e+00,-8.053721427917480469e+00,-8.044643402099609375e+00,-8.042670249938964844e+00,-8.030918121337890625e+00,-8.024624824523925781e+00,-8.016899108886718750e+00,-8.009596824645996094e+00,-8.006579399108886719e+00,-8.010342597961425781e+00,-8.047569274902343750e+00,-8.082463264465332031e+00,-7.817931652069091797e+00,nan,nan,-7.998268127441406250e+00,-7.928998470306396484e+00,-7.970477104187011719e+00,-7.964688777923583984e+00,-7.931648254394531250e+00,-7.937373638153076172e+00,-7.926251888275146484e+00,-7.902431964874267578e+00,-7.913446903228759766e+00,-7.930708885192871094e+00,-7.928458690643310547e+00,-7.924708366394042969e+00,-7.885277748107910156e+00,-7.906776428222656250e+00,-7.897258281707763672e+00,-7.895523548126220703e+00,-7.887606143951416016e+00,-7.894983291625976562e+00,-7.853923320770263672e+00,-7.840566158294677734e+00,-7.839988231658935547e+00,-7.831582546234130859e+00,-7.790843009948730469e+00,-7.797530651092529297e+00,-7.757197380065917969e+00,-7.755989074707031250e+00,-7.729660034179687500e+00,-7.715071678161621094e+00,-7.711232185363769531e+00,-7.705992698669433594e+00,-7.692245960235595703e+00,-7.695744037628173828e+00,-7.690632820129394531e+00,-7.684497833251953125e+00,-7.668427467346191406e+00,-7.665556907653808594e+00
-1.000895881652832031e+01,nan,-1.021170425415039062e+01,-1.018556213378906250e+01,-1.015422344207763672e+01,-1.005404853820800781e+01,-9.982626914978027344e+00,-1.001576042175292969e+01,-9.991277694702148438e+00,-9.970675468444824219e+00,-9.931856155395507812e+00,-9.891790390014648438e+00,-9.875548362731933594e+00,-9.821973800659179688e+00,-9.866120338439941406e+00,-9.804605484008789062e+00,-9.867242813110351562e+00,-9.811952590942382812e+00,-9.940477371215820312e+00,-9.930078506469726562e+00,-9.906229019165039062e+00,-9.848058700561523438e+00,-9.668633460998535156e+00,-9.632006645202636719e+00,-9.844534873962402344e+00,-9.787640571594238281e+00,-9.778834342956542969e+00,-9.753633499145507812e+00,-9.718909263610839844e+00,-9.507272720336914062e+00,-9.652956962585449219e+00,-9.584339141845703125e+00,-9.620141029357910156e+00,-9.585976600646972656e+00,-9.553561210632324219e+00,-9.356856346130371094e+00,-9.359819412231445312e+00,-9.336647987365722656e+00,-9.552843093872070312e+00,-9.355202674865722656e+00,-9.398172378540039062e+00,-9.418346405029296875e+00,-9.336539268493652344e+00,-9.443823814392089844e+00,-9.417712211608886719e+00,-9.338440895080566406e+00,-9.309782028198242188e+00,-9.113645553588867188e+00,-9.124045372009277344e+00,-9.150271415710449219e+00,-9.092530250549316406e+00,-9.290143966674804688e+00,-9.297209739685058594e+00,-9.277477264404296875e+00,-9.254975318908691406e+00,-8.983249664306640625e+00,-8.986213684082031250e+00,-9.108043670654296875e+00,-8.931019783020019531e+00,nan,-9.081911087036132812e+00,nan,nan,nan,-9.018062591552734375e+00,-9.026955604553222656e+00,-8.996283531188964844e+00,-8.962741851806640625e+00,-8.943236351013183594e+00,nan,nan,nan,-8.871009826660156250e+00,-8.845272064208984375e+00,-8.824440002441406250e+00,-8.777349472045898438e+00,nan,nan,-8.740148544311523438e+00,-8.583460807800292969e+00,-8.590504646301269531e+00,-8.685494422912597656e+00,-8.670777320861816406e+00,nan,-8.633917808532714844e+00,-8.616325378417968750e+00,-8.598728179931640625e+00,-8.539716720581054688e+00,-8.549396514892578125e+00,-8.536361694335937500e+00,-8.412239074707031250e+00,-8.414678573608398438e+00,-8.490928649902343750e+00,-8.467504501342773438e+00,-8.384667396545410156e+00,-8.401805877685546875e+00,-8.409183502197265625e+00,-8.391597747802734375e+00,-8.385930061340332031e+00,-8.329941749572753906e+00,-8.315220832824707031e+00,-8.286091804504394531e+00,-8.220978736877441406e+00,-8.216194152832031250e+00,-8.219661712646484375e+00,-8.186846733093261719e+00,-8.170392990112304688e+00,-1.070537853240966797e+01,-1.068843650817871094e+01,-8.138041496276855469e+00,-8.135583877563476562e+00,-8.131396293640136719e+00,nan,nan,nan,nan,nan,nan,-8.023266792297363281e+00,-8.023605346679687500e+00,-7.983393669128417969e+00,-7.991369247436523438e+00,-8.020757675170898438e+00,-8.026005744934082031e+00,-8.038387298583984375e+00,-8.085262298583984375e+00,-8.119959831237792969e+00,-7.930987834930419922e+00,-7.911775588989257812e+00,-7.874059200286865234e+00,-7.888141632080078125e+00,-7.887321472167968750e+00,-7.961963176727294922e+00,-7.936537265777587891e+00,-7.934090614318847656e+00,-7.939162254333496094e+00,-7.916742801666259766e+00,-7.929060935974121094e+00,-7.926124572753906250e+00,-7.909575939178466797e+00,-7.909294605255126953e+00,-7.846183776855468750e+00,-7.895161628723144531e+00,-7.892671108245849609e+00,-7.887628078460693359e+00,-7.885694980621337891e+00,-7.880156040191650391e+00,-7.874968528747558594e+00,-7.845187187194824219e+00,-7.847027301788330078e+00,-7.822948932647705078e+00,-7.806828498840332031e+00,-7.794620513916015625e+00,-7.777126789093017578e+00,-7.762488842010498047e+00,-7.738069057464599609e+00,-7.727222919464111328e+00,-7.678640842437744141e+00,-7.681755065917968750e+00,-7.661690711975097656e+00,-7.658093929290771484e+00,-7.650176048278808594e+00,nan,-7.642936706542968750e+00,-7.641487121582031250e+00
-1.003289222717285156e+01,-1.002603244781494141e+01,-1.003725528717041016e+01,-1.017612457275390625e+01,-1.015823173522949219e+01,-1.014970970153808594e+01,-1.000200653076171875e+01,-1.002750396728515625e+01,-1.003271579742431641e+01,-9.987806320190429688e+00,-9.985865592956542969e+00,-9.926734924316406250e+00,-9.901376724243164062e+00,-9.835454940795898438e+00,-9.845059394836425781e+00,-9.807119369506835938e+00,-9.808429718017578125e+00,-9.919687271118164062e+00,-9.793359756469726562e+00,-9.781290054321289062e+00,-9.889729499816894531e+00,-9.854351997375488281e+00,-9.848381042480468750e+00,-9.627985000610351562e+00,-9.811632156372070312e+00,-9.584966659545898438e+00,-9.582010269165039062e+00,-9.777756690979003906e+00,-9.769330978393554688e+00,-9.708715438842773438e+00,-9.488986968994140625e+00,-9.495755195617675781e+00,-9.640429496765136719e+00,-9.677335739135742188e+00,-9.627561569213867188e+00,-9.488035202026367188e+00,-7.824268341064453125e+00,-9.367388725280761719e+00,-9.362803459167480469e+00,-9.415832519531250000e+00,-9.377780914306640625e+00,-9.438101768493652344e+00,-9.475254058837890625e+00,-9.465808868408203125e+00,-9.240423202514648438e+00,-9.245108604431152344e+00,-9.147951126098632812e+00,-9.238306999206542969e+00,-9.042697906494140625e+00,-8.429735183715820312e+00,-8.884897232055664062e+00,-9.328392028808593750e+00,-9.293030738830566406e+00,-9.293076515197753906e+00,-9.271770477294921875e+00,-9.240630149841308594e+00,-8.990995407104492188e+00,-8.993472099304199219e+00,-9.165923118591308594e+00,-8.633475303649902344e+00,nan,nan,nan,-9.045763015747070312e+00,-9.072794914245605469e+00,-9.042625427246093750e+00,-8.997438430786132812e+00,-8.988039970397949219e+00,-8.963980674743652344e+00,-8.937375068664550781e+00,nan,nan,-8.889807701110839844e+00,-8.867683410644531250e+00,-8.845044136047363281e+00,-8.800271034240722656e+00,nan,-8.796380996704101562e+00,-8.772122383117675781e+00,nan,-8.601613044738769531e+00,-8.600923538208007812e+00,-8.672355651855468750e+00,nan,-8.661695480346679688e+00,-8.620587348937988281e+00,-8.601930618286132812e+00,-8.599908828735351562e+00,nan,-8.557707786560058594e+00,-8.511195182800292969e+00,-8.417556762695312500e+00,-8.412841796875000000e+00,-8.383976936340332031e+00,-8.370361328125000000e+00,-8.348995208740234375e+00,-8.447950363159179688e+00,-8.429401397705078125e+00,-8.333652496337890625e+00,-8.347510337829589844e+00,-8.319521903991699219e+00,-8.254814147949218750e+00,-8.225982666015625000e+00,-8.224370956420898438e+00,-8.213631629943847656e+00,-8.205234527587890625e+00,-8.173938751220703125e+00,-1.088791656494140625e+01,-8.160208702087402344e+00,-8.087681770324707031e+00,-8.070277214050292969e+00,-8.068964958190917969e+00,-8.027070045471191406e+00,-8.045008659362792969e+00,nan,-8.030858993530273438e+00,nan,nan,-8.003503799438476562e+00,-8.016185760498046875e+00,-7.997292995452880859e+00,-7.996598243713378906e+00,-7.952712535858154297e+00,-7.960752964019775391e+00,-7.964240074157714844e+00,-7.969770431518554688e+00,-8.105036735534667969e+00,-7.882570266723632812e+00,-7.885379791259765625e+00,-7.881296157836914062e+00,-7.905730724334716797e+00,-7.889725208282470703e+00,-7.914468765258789062e+00,-7.935572147369384766e+00,-7.824543476104736328e+00,-7.822704315185546875e+00,-7.843466758728027344e+00,-7.850205421447753906e+00,-7.842741966247558594e+00,-7.897904396057128906e+00,-7.881089210510253906e+00,-7.867923259735107422e+00,-7.860645771026611328e+00,-7.860165119171142578e+00,-7.863750934600830078e+00,-7.855039596557617188e+00,-7.858088493347167969e+00,-7.857386589050292969e+00,-7.834806442260742188e+00,-7.808945655822753906e+00,-7.787356853485107422e+00,-7.780775070190429688e+00,-7.760375022888183594e+00,-7.752470016479492188e+00,-7.738775730133056641e+00,-7.724291324615478516e+00,-7.708880901336669922e+00,-7.706899166107177734e+00,-7.698478698730468750e+00,-7.665268421173095703e+00,-7.662084579467773438e+00,-7.651849269866943359e+00,-7.647915363311767578e+00,-7.635902404785156250e+00,-7.631248474121093750e+00
-1.004965400695800781e+01,-1.025682544708251953e+01,-1.000498008728027344e+01,-9.997611045837402344e+00,-1.019594573974609375e+01,-1.021836090087890625e+01,-1.017102813720703125e+01,-9.976124763488769531e+00,-1.002957534790039062e+01,-1.000908470153808594e+01,-9.992858886718750000e+00,-9.969473838806152344e+00,-9.933826446533203125e+00,-9.890077590942382812e+00,-9.828006744384765625e+00,-9.819989204406738281e+00,-9.819520950317382812e+00,-9.783433914184570312e+00,-9.786664009094238281e+00,-9.938284873962402344e+00,-9.919941902160644531e+00,-9.852351188659667969e+00,-9.847391128540039062e+00,-9.841274261474609375e+00,-9.823733329772949219e+00,-9.811368942260742188e+00,-9.762449264526367188e+00,-9.539834976196289062e+00,-9.743562698364257812e+00,-9.738437652587890625e+00,-9.717536926269531250e+00,-9.673577308654785156e+00,-9.499973297119140625e+00,-9.600203514099121094e+00,-9.493324279785156250e+00,-9.362724304199218750e+00,-9.531229019165039062e+00,-9.590917587280273438e+00,-9.404891967773437500e+00,-9.390422821044921875e+00,-9.478878974914550781e+00,-9.407228469848632812e+00,-9.409534454345703125e+00,-9.476938247680664062e+00,-9.333595275878906250e+00,-9.219550132751464844e+00,-9.220066070556640625e+00,-9.404780387878417969e+00,nan,-9.361119270324707031e+00,-9.365844726562500000e+00,-9.373933792114257812e+00,-9.306470870971679688e+00,-9.317397117614746094e+00,-9.292286872863769531e+00,-9.260951995849609375e+00,-9.222898483276367188e+00,-9.003923416137695312e+00,-8.055546760559082031e+00,-8.659787178039550781e+00,nan,-9.111146926879882812e+00,nan,nan,-9.084328651428222656e+00,-9.056709289550781250e+00,-9.030999183654785156e+00,-9.005139350891113281e+00,-8.981884002685546875e+00,-8.954192161560058594e+00,nan,nan,-8.912790298461914062e+00,-8.891122817993164062e+00,-8.864803314208984375e+00,nan,nan,-8.805803298950195312e+00,-8.786468505859375000e+00,-8.755495071411132812e+00,nan,-8.603591918945312500e+00,-8.590890884399414062e+00,-8.572290420532226562e+00,-8.528382301330566406e+00,-8.326538085937500000e+00,nan,-8.612419128417968750e+00,-8.597129821777343750e+00,-8.591957092285156250e+00,-8.555622100830078125e+00,-8.547924995422363281e+00,-8.526453971862792969e+00,-8.442790985107421875e+00,-8.373468399047851562e+00,-8.340601921081542969e+00,-8.328002929687500000e+00,-8.309812545776367188e+00,-8.291277885437011719e+00,-8.275428771972656250e+00,-8.223599433898925781e+00,-8.217710494995117188e+00,-8.219042778015136719e+00,-8.242053985595703125e+00,-8.245044708251953125e+00,-8.204147338867187500e+00,-8.205829620361328125e+00,-8.170664787292480469e+00,-8.155406951904296875e+00,-8.117066383361816406e+00,-8.097963333129882812e+00,-8.078217506408691406e+00,-8.094017028808593750e+00,-8.086494445800781250e+00,-8.077053070068359375e+00,-8.037351608276367188e+00,-8.045348167419433594e+00,-8.051963806152343750e+00,-8.045485496520996094e+00,-7.979900360107421875e+00,-7.974057197570800781e+00,-7.983292102813720703e+00,-7.982241630554199219e+00,-7.901109218597412109e+00,-7.896163940429687500e+00,-7.889888763427734375e+00,-7.905875205993652344e+00,-7.913958549499511719e+00,-7.913876056671142578e+00,-7.819354534149169922e+00,-7.827612400054931641e+00,-7.833606719970703125e+00,-7.830363273620605469e+00,-7.838984012603759766e+00,-7.828903198242187500e+00,-7.892240524291992188e+00,-7.848910331726074219e+00,-7.878649234771728516e+00,-7.870390415191650391e+00,-7.722063064575195312e+00,-7.731634140014648438e+00,-7.830988407135009766e+00,-7.827941417694091797e+00,-7.816650390625000000e+00,-7.842606544494628906e+00,-7.839836120605468750e+00,-7.828630924224853516e+00,-7.808272838592529297e+00,-7.789619922637939453e+00,-7.766908645629882812e+00,-7.755335807800292969e+00,-7.751919269561767578e+00,-7.734734535217285156e+00,-7.729865550994873047e+00,-7.729317665100097656e+00,-7.719274520874023438e+00,-7.694728374481201172e+00,-7.691790103912353516e+00,-7.673020362854003906e+00,-7.666616916656494141e+00,-7.658945083618164062e+00,-7.625899791717529297e+00,-7.617156505584716797e+00,-7.619424819946289062e+00,-7.620686054229736328e+00
-1.006923389434814453e+01,-1.005609703063964844e+01,-1.029740333557128906e+01,-1.003997135162353516e+01,-1.021142578125000000e+01,-9.971488952636718750e+00,-9.950298309326171875e+00,-9.939292907714843750e+00,-9.960133552551269531e+00,-9.984772682189941406e+00,-1.001027393341064453e+01,-9.983346939086914062e+00,-9.959809303283691406e+00,-9.930855751037597656e+00,-9.896548271179199219e+00,-9.889630317687988281e+00,-9.794672966003417969e+00,-9.797557830810546875e+00,-9.791155815124511719e+00,-9.727701187133789062e+00,-9.817350387573242188e+00,-9.720640182495117188e+00,-9.894868850708007812e+00,-9.836708068847656250e+00,-9.794245719909667969e+00,-9.849544525146484375e+00,-9.684485435485839844e+00,-9.799608230590820312e+00,-9.765494346618652344e+00,nan,-9.746486663818359375e+00,-9.336906433105468750e+00,-9.484360694885253906e+00,-9.652247428894042969e+00,-9.643690109252929688e+00,-9.510807037353515625e+00,-9.440884590148925781e+00,-9.488466262817382812e+00,-9.594627380371093750e+00,-9.617443084716796875e+00,-9.589658737182617188e+00,-9.471323013305664062e+00,-9.370322227478027344e+00,-9.513830184936523438e+00,-9.485713958740234375e+00,-9.455945968627929688e+00,-9.001752853393554688e+00,-8.548383712768554688e+00,-9.223398208618164062e+00,-9.378075599670410156e+00,-9.358694076538085938e+00,-8.133338928222656250e+00,-8.056417465209960938e+00,-9.328071594238281250e+00,-9.311843872070312500e+00,-9.281338691711425781e+00,-9.257354736328125000e+00,-9.023887634277343750e+00,-7.898113250732421875e+00,-9.176054954528808594e+00,-9.098221778869628906e+00,-9.070138931274414062e+00,nan,nan,-9.042859077453613281e+00,-9.070592880249023438e+00,-9.051007270812988281e+00,-9.027526855468750000e+00,-8.998966217041015625e+00,nan,nan,nan,-8.942358016967773438e+00,-8.917239189147949219e+00,-8.892460823059082031e+00,nan,nan,-8.835936546325683594e+00,-8.816094398498535156e+00,nan,-8.784809112548828125e+00,-8.761648178100585938e+00,nan,-8.562973022460937500e+00,-8.533235549926757812e+00,-8.516748428344726562e+00,-8.495409011840820312e+00,-8.476076126098632812e+00,-8.456111907958984375e+00,-8.473767280578613281e+00,-8.565015792846679688e+00,-8.540834426879882812e+00,-8.532455444335937500e+00,-8.512340545654296875e+00,-8.498353004455566406e+00,-8.012799263000488281e+00,-8.280430793762207031e+00,-8.314353942871093750e+00,-8.285493850708007812e+00,-8.281455993652343750e+00,-8.269763946533203125e+00,-8.238297462463378906e+00,-8.216782569885253906e+00,-8.196799278259277344e+00,-8.181795120239257812e+00,-8.156161308288574219e+00,-8.212800979614257812e+00,-8.124776840209960938e+00,-8.110549926757812500e+00,-8.156590461730957031e+00,-8.074605941772460938e+00,-8.062697410583496094e+00,-8.040906906127929688e+00,-8.048837661743164062e+00,-8.012855529785156250e+00,-8.022088050842285156e+00,-8.025577545166015625e+00,-8.011454582214355469e+00,-7.993395805358886719e+00,-7.932720184326171875e+00,-7.932117462158203125e+00,-7.934707641601562500e+00,-7.927225112915039062e+00,-7.913210868835449219e+00,-7.834606647491455078e+00,-7.838587760925292969e+00,-7.838292598724365234e+00,-7.834774017333984375e+00,-7.833558082580566406e+00,-7.841098308563232422e+00,-7.847595214843750000e+00,-7.847618103027343750e+00,-7.855542182922363281e+00,-7.803730487823486328e+00,-7.783141136169433594e+00,-7.747523784637451172e+00,-7.748394489288330078e+00,-7.768873691558837891e+00,-7.747146606445312500e+00,-7.750664710998535156e+00,-7.761997222900390625e+00,-7.760895729064941406e+00,-7.796131610870361328e+00,-7.768356323242187500e+00,-7.757340431213378906e+00,-7.775280475616455078e+00,-7.752349376678466797e+00,-7.718417644500732422e+00,-7.723704814910888672e+00,-7.717698574066162109e+00,-7.709550380706787109e+00,-7.717827796936035156e+00,-7.724414825439453125e+00,-7.722478389739990234e+00,-7.710321426391601562e+00,-7.706233024597167969e+00,-7.706593990325927734e+00,-7.694219589233398438e+00,-7.656284809112548828e+00,-7.656299114227294922e+00,-7.651217460632324219e+00,-7.633885860443115234e+00,-7.634891033172607422e+00,-7.622748374938964844e+00,-7.646437644958496094e+00
nan,-1.005454254150390625e+01,-1.004032135009765625e+01,-1.026613235473632812e+01,-1.023847579956054688e+01,-1.002584075927734375e+01,-1.022032928466796875e+01,-9.938937187194824219e+00,-9.907368659973144531e+00,-9.913133621215820312e+00,-9.976753234863281250e+00,-1.000682163238525391e+01,-9.993303298950195312e+00,-9.961748123168945312e+00,-9.942193031311035156e+00,-9.915542602539062500e+00,-9.872323989868164062e+00,-9.797969818115234375e+00,-9.798707962036132812e+00,-9.763240814208984375e+00,-9.755963325500488281e+00,-9.933656692504882812e+00,-9.918568611145019531e+00,-9.913769721984863281e+00,-9.879691123962402344e+00,-9.887286186218261719e+00,-9.834131240844726562e+00,-9.770168304443359375e+00,-9.763128280639648438e+00,-9.753965377807617188e+00,-9.707886695861816406e+00,-9.687869071960449219e+00,-8.409104347229003906e+00,-9.475658416748046875e+00,-9.595644950866699219e+00,-9.579243659973144531e+00,-9.665233612060546875e+00,-9.578648567199707031e+00,-9.662796020507812500e+00,-9.640466690063476562e+00,-9.508478164672851562e+00,-9.585906028747558594e+00,-9.431199073791503906e+00,-9.534461975097656250e+00,-9.515974044799804688e+00,-9.460151672363281250e+00,-8.960031509399414062e+00,-9.224648475646972656e+00,-8.121721267700195312e+00,-9.397589683532714844e+00,-9.366983413696289062e+00,-9.345941543579101562e+00,-9.353717803955078125e+00,-9.363229751586914062e+00,-9.336573600769042969e+00,-9.309647560119628906e+00,-9.287663459777832031e+00,-9.033910751342773438e+00,-9.030593872070312500e+00,-9.018814086914062500e+00,nan,-9.140369415283203125e+00,-8.360912322998046875e+00,-8.990353584289550781e+00,-8.884708404541015625e+00,-8.872993469238281250e+00,-9.070952415466308594e+00,-9.055146217346191406e+00,nan,nan,nan,nan,-8.955801010131835938e+00,-8.932358741760253906e+00,-8.913105964660644531e+00,nan,-8.868039131164550781e+00,-8.855044364929199219e+00,-8.833277702331542969e+00,nan,-8.792560577392578125e+00,-8.771512031555175781e+00,-8.413628578186035156e+00,-8.426987648010253906e+00,-8.696985244750976562e+00,-8.683908462524414062e+00,-8.647525787353515625e+00,-8.638607978820800781e+00,-8.452124595642089844e+00,-8.430084228515625000e+00,-8.434331893920898438e+00,-8.399679183959960938e+00,-8.361419677734375000e+00,-8.343641281127929688e+00,-8.317637443542480469e+00,-8.289258956909179688e+00,-8.275176048278808594e+00,-8.252923011779785156e+00,-8.239852905273437500e+00,-8.216567039489746094e+00,-8.174343109130859375e+00,-8.172425270080566406e+00,-8.155029296875000000e+00,-8.126419067382812500e+00,-8.109470367431640625e+00,-8.098501205444335938e+00,-8.156188011169433594e+00,-8.140933990478515625e+00,-8.123720169067382812e+00,-8.106155395507812500e+00,-8.108638763427734375e+00,-8.014162063598632812e+00,-8.005390167236328125e+00,-7.976707935333251953e+00,-7.981283187866210938e+00,-7.972137928009033203e+00,-7.971709728240966797e+00,-7.948880672454833984e+00,-7.957341670989990234e+00,-7.942149162292480469e+00,-7.937857151031494141e+00,-7.910623550415039062e+00,-7.862215518951416016e+00,-7.862833976745605469e+00,-7.847249031066894531e+00,-7.847815036773681641e+00,-7.852414608001708984e+00,-7.854811668395996094e+00,-7.855874538421630859e+00,-7.759314537048339844e+00,-7.751431941986083984e+00,-7.762169361114501953e+00,-7.765743732452392578e+00,-7.761437892913818359e+00,-7.758336067199707031e+00,-7.760051250457763672e+00,-7.756858825683593750e+00,-7.761191844940185547e+00,-7.761888980865478516e+00,-7.821399688720703125e+00,-7.615017890930175781e+00,-7.640145301818847656e+00,-7.615788936614990234e+00,-7.617512702941894531e+00,-7.614437103271484375e+00,-7.614124774932861328e+00,-7.704151630401611328e+00,-7.660460472106933594e+00,-7.617939472198486328e+00,-7.642413139343261719e+00,-7.669910907745361328e+00,-7.676600933074951172e+00,-7.676414966583251953e+00,-7.692186355590820312e+00,-7.702564239501953125e+00,-7.692019939422607422e+00,-7.678249835968017578e+00,-7.675184726715087891e+00,-7.669600486755371094e+00,-7.671100616455078125e+00,-7.640732765197753906e+00,-7.609593391418457031e+00,-7.609141349792480469e+00,-7.600846767425537109e+00,-7.597450733184814453e+00
