-5.817841529846191406e+00,-4.439391613006591797e+00,-5.969461917877197266e+00,-4.925290107727050781e+00,-4.698599815368652344e+00,-4.263626098632812500e+00,-3.305529594421386719e+00,-5.778219699859619141e+00,-4.421521663665771484e+00,-4.412329196929931641e+00,-4.781999588012695312e+00,-4.594120025634765625e+00,nan,nan,nan,nan,nan,nan,nan,nan,nan,nan,nan,nan,nan,nan,nan,nan,nan,-3.690400123596191406e+00,-7.372729301452636719e+00,-3.807679176330566406e+00,-7.468776702880859375e+00,-7.450633049011230469e+00,-4.777811050415039062e+00,-7.394698143005371094e+00,-7.449384689331054688e+00,-6.347414493560791016e+00,-5.561952590942382812e+00,-4.919781208038330078e+00,-7.377623558044433594e+00,-7.628508567810058594e+00,-7.621445655822753906e+00,-7.609845161437988281e+00,-7.608904361724853516e+00,-7.683338165283203125e+00,-5.004612922668457031e+00,-7.559556961059570312e+00,-7.893798828125000000e+00,-6.742367744445800781e+00,-2.417856216430664062e+00,-8.032084465026855469e+00,-8.158870697021484375e+00,-8.188122749328613281e+00,-8.280988693237304688e+00,-8.293318748474121094e+00,-8.390148162841796875e+00,-8.302160263061523438e+00,-8.520509719848632812e+00,-8.525278091430664062e+00,-8.649324417114257812e+00,-8.643967628479003906e+00,-8.632975578308105469e+00,-8.726696014404296875e+00,-8.753300666809082031e+00,-4.821837425231933594e+00,-2.214592456817626953e+00,-8.018495559692382812e+00,-5.051183700561523438e+00,-3.376767396926879883e+00,-4.718010425567626953e+00,-4.912550449371337891e+00,-6.973255634307861328e+00,-8.255680084228515625e+00,-9.119947433471679688e+00,-6.621048927307128906e+00,-5.757829189300537109e+00,-7.035062789916992188e+00,-6.598104953765869141e+00,-6.526846885681152344e+00,-9.029955863952636719e+00,-9.031666755676269531e+00,-6.563796043395996094e+00,-8.389998435974121094e+00,-8.967870712280273438e+00,-8.995403289794921875e+00,-7.510633468627929688e+00,-2.041549205780029297e+00,-6.288804054260253906e+00,-5.957513332366943359e+00,-5.805512905120849609e+00,-9.314746856689453125e+00,-4.174316406250000000e+00,-9.574195861816406250e+00,-4.104157447814941406e+00,-2.329085350036621094e+00,-9.624852180480957031e+00,-9.621459007263183594e+00,-3.577831029891967773e+00,-9.568880081176757812e+00,-9.664426803588867188e+00,-5.739502429962158203e+00,-5.683147907257080078e+00,-5.779109001159667969e+00,-9.594310760498046875e+00,-9.577321052551269531e+00,-9.457761764526367188e+00,-9.471515655517578125e+00,-9.504220962524414062e+00,-9.624767303466796875e+00,-8.453166961669921875e+00,-8.298214912414550781e+00,-9.531024932861328125e+00,-7.694393157958984375e+00,-9.670976638793945312e+00,-9.706125259399414062e+00,-9.737722396850585938e+00,-9.382254600524902344e+00,-9.535069465637207031e+00,-9.326067924499511719e+00,-9.329122543334960938e+00,-9.332346916198730469e+00,-9.230123519897460938e+00,-9.255927085876464844e+00,-9.329933166503906250e+00,-8.718838691711425781e+00,-7.577902317047119141e+00,-6.988806724548339844e+00,-8.198202133178710938e+00,-8.635714530944824219e+00,-6.961088657379150391e+00,-7.852135181427001953e+00,-7.842589378356933594e+00,-9.797546386718750000e+00,nan,-9.808937072753906250e+00,-9.815587043762207031e+00,nan,-8.176358222961425781e+00,-8.167593002319335938e+00,nan,-9.798879623413085938e+00,nan,nan,-9.758923530578613281e+00,-8.599637031555175781e+00,-8.809205055236816406e+00,-9.024598121643066406e+00,-9.154681205749511719e+00,-9.496502876281738281e+00,-9.536826133728027344e+00,-9.109877586364746094e+00,-9.488931655883789062e+00,-9.049050331115722656e+00,-9.212039947509765625e+00,-9.609167098999023438e+00,-9.603994369506835938e+00,-9.668218612670898438e+00,-9.656439781188964844e+00,-9.150523185729980469e+00,-9.172659873962402344e+00,-9.067000389099121094e+00,-8.886224746704101562e+00,-9.123508453369140625e+00,-9.416080474853515625e+00
-4.449099540710449219e+00,-4.449048995971679688e+00,-7.178310394287109375e+00,-5.080911159515380859e+00,-5.204681396484375000e+00,-5.215876579284667969e+00,-4.441561698913574219e+00,-4.435930252075195312e+00,-4.436217308044433594e+00,-4.434615135192871094e+00,-2.541019916534423828e+00,-2.835278987884521484e+00,-7.053189277648925781e+00,nan,nan,nan,nan,nan,nan,nan,nan,nan,nan,nan,nan,nan,-2.517807006835937500e+00,nan,nan,nan,-7.466073036193847656e+00,-2.236510276794433594e+00,-7.487062454223632812e+00,-7.485293865203857422e+00,-7.424764156341552734e+00,-5.711580276489257812e+00,-5.704784393310546875e+00,-5.702353477478027344e+00,-5.687907695770263672e+00,-4.782047271728515625e+00,-7.634321689605712891e+00,-7.638111114501953125e+00,-7.656328678131103516e+00,-7.706402778625488281e+00,-2.934921264648437500e+00,-7.586332321166992188e+00,-7.505259513854980469e+00,-3.109951496124267578e+00,-5.912296295166015625e+00,-8.170503616333007812e+00,-2.346272468566894531e+00,-8.260784149169921875e+00,-8.276546478271484375e+00,-8.414753913879394531e+00,-8.407880783081054688e+00,-8.440269470214843750e+00,-8.561500549316406250e+00,-8.570599555969238281e+00,-8.660314559936523438e+00,-8.653067588806152344e+00,-8.650189399719238281e+00,-8.737359046936035156e+00,-8.738159179687500000e+00,-7.344039916992187500e+00,-2.258095264434814453e+00,-8.925120353698730469e+00,-9.021683692932128906e+00,-9.108551979064941406e+00,-9.048220634460449219e+00,-7.028203487396240234e+00,-4.498340129852294922e+00,-3.764249801635742188e+00,-3.696590900421142578e+00,-4.264373779296875000e+00,-6.229895591735839844e+00,-9.080614089965820312e+00,-6.520359992980957031e+00,-6.609893321990966797e+00,-9.035597801208496094e+00,-6.594262123107910156e+00,-8.972006797790527344e+00,-8.860955238342285156e+00,-8.435217857360839844e+00,-6.562155723571777344e+00,-5.959346294403076172e+00,-7.775455474853515625e+00,-7.842944622039794922e+00,-7.447778224945068359e+00,-8.090522766113281250e+00,-4.692565917968750000e+00,-6.719971179962158203e+00,-8.647321701049804688e+00,-4.189610481262207031e+00,-2.341256141662597656e+00,-5.976946830749511719e+00,-3.100853443145751953e+00,-3.518263339996337891e+00,-4.170416831970214844e+00,-5.966603755950927734e+00,-9.623201370239257812e+00,-9.596381187438964844e+00,-5.828520774841308594e+00,-9.616426467895507812e+00,-9.761089324951171875e+00,-3.404843091964721680e+00,-9.639058113098144531e+00,-9.410989761352539062e+00,-9.506119728088378906e+00,-9.438053131103515625e+00,-9.297748565673828125e+00,-9.747930526733398438e+00,-9.654611587524414062e+00,-9.630383491516113281e+00,-9.575830459594726562e+00,-9.202300071716308594e+00,-8.917274475097656250e+00,-9.319023132324218750e+00,-9.629974365234375000e+00,-9.715690612792968750e+00,-9.726395606994628906e+00,-8.280105590820312500e+00,-9.249538421630859375e+00,-9.396473884582519531e+00,-9.547464370727539062e+00,-9.224345207214355469e+00,-8.890697479248046875e+00,-7.281059741973876953e+00,-7.655365943908691406e+00,-7.502328395843505859e+00,-6.983828544616699219e+00,-6.965533256530761719e+00,-7.112723350524902344e+00,-6.976513862609863281e+00,-9.774239540100097656e+00,nan,nan,-8.165472984313964844e+00,-9.957183837890625000e+00,nan,nan,-8.192772865295410156e+00,-8.035049438476562500e+00,-8.484685897827148438e+00,-8.265108108520507812e+00,nan,-8.460807800292968750e+00,-9.280311584472656250e+00,-8.970128059387207031e+00,-9.599735260009765625e+00,-9.201173782348632812e+00,-9.216997146606445312e+00,-9.316768646240234375e+00,-9.189580917358398438e+00,-9.510213851928710938e+00,-9.212546348571777344e+00,-9.590500831604003906e+00,-9.612348556518554688e+00,-9.657527923583984375e+00,-9.741287231445312500e+00,-9.107531547546386719e+00,-9.177954673767089844e+00,-8.833637237548828125e+00,-8.965514183044433594e+00,-9.134800910949707031e+00,-8.578660964965820312e+00
-4.490098953247070312e+00,-7.324573993682861328e+00,-6.517126083374023438e+00,-5.236879348754882812e+00,-5.229499816894531250e+00,-5.230009078979492188e+00,-4.459632396697998047e+00,-3.713370800018310547e+00,-3.712955713272094727e+00,-4.701413631439208984e+00,-4.676084041595458984e+00,-2.966326236724853516e+00,-2.784488201141357422e+00,nan,nan,nan,nan,nan,nan,nan,nan,nan,nan,nan,nan,nan,-2.559939384460449219e+00,nan,nan,nan,-2.340920448303222656e+00,-2.293320655822753906e+00,-2.266519546508789062e+00,nan,nan,-7.672509670257568359e+00,-7.630005359649658203e+00,-7.638389110565185547e+00,-7.670234680175781250e+00,-7.715193271636962891e+00,-7.170608997344970703e+00,-7.819501399993896484e+00,-7.873565673828125000e+00,-7.844411373138427734e+00,-7.858065605163574219e+00,-7.965548992156982422e+00,-3.125003814697265625e+00,-8.063879966735839844e+00,-5.962910652160644531e+00,-2.445602416992187500e+00,-2.543902397155761719e+00,-8.257413864135742188e+00,-8.515048027038574219e+00,-8.583085060119628906e+00,-8.711647033691406250e+00,-8.679103851318359375e+00,-8.692385673522949219e+00,-8.643783569335937500e+00,-8.702909469604492188e+00,-8.668537139892578125e+00,-8.815632820129394531e+00,-8.876432418823242188e+00,-8.933746337890625000e+00,-2.272558689117431641e+00,-4.881900787353515625e+00,-8.987022399902343750e+00,-9.131311416625976562e+00,-9.141992568969726562e+00,-9.131766319274902344e+00,-9.096141815185546875e+00,-4.614095687866210938e+00,-7.886083126068115234e+00,-7.264725208282470703e+00,-7.864811420440673828e+00,-6.276796340942382812e+00,-9.053057670593261719e+00,-4.186052799224853516e+00,-6.611101150512695312e+00,-8.998210906982421875e+00,-9.014186859130859375e+00,-8.791588783264160156e+00,-8.466547966003417969e+00,-8.495008468627929688e+00,-5.944325447082519531e+00,-7.382092952728271484e+00,-7.802393913269042969e+00,-7.144535064697265625e+00,-7.137982845306396484e+00,-7.736729621887207031e+00,-4.697549819946289062e+00,-4.854678630828857422e+00,-9.319859504699707031e+00,-4.076716423034667969e+00,-3.935359001159667969e+00,-4.689381599426269531e+00,-4.052353858947753906e+00,-3.504220962524414062e+00,-5.989084243774414062e+00,-9.662203788757324219e+00,-5.793660163879394531e+00,-5.806776046752929688e+00,-5.830646991729736328e+00,-3.247093200683593750e+00,-3.431027412414550781e+00,-4.511353015899658203e+00,-9.764127731323242188e+00,-9.714900016784667969e+00,-9.768676757812500000e+00,-4.810101509094238281e+00,-9.690608978271484375e+00,-9.701118469238281250e+00,-9.653133392333984375e+00,-9.631984710693359375e+00,-8.964950561523437500e+00,-8.963315010070800781e+00,-8.919655799865722656e+00,-8.917980194091796875e+00,-8.831623077392578125e+00,-8.565599441528320312e+00,-8.108967781066894531e+00,-8.254472732543945312e+00,-9.349312782287597656e+00,-9.330468177795410156e+00,-9.421609878540039062e+00,-7.451309204101562500e+00,-8.913671493530273438e+00,-8.855298995971679688e+00,-7.743343830108642578e+00,-6.981360912322998047e+00,-6.990827083587646484e+00,-7.045365810394287109e+00,-6.925753593444824219e+00,-9.888383865356445312e+00,-9.885070800781250000e+00,nan,nan,-9.932149887084960938e+00,nan,nan,-8.277029991149902344e+00,nan,-8.143089294433593750e+00,-8.076946258544921875e+00,-8.196625709533691406e+00,-8.444206237792968750e+00,-8.569318771362304688e+00,-9.077016830444335938e+00,-9.078466415405273438e+00,-9.574687957763671875e+00,-9.606298446655273438e+00,-9.261089324951171875e+00,nan,-9.091595649719238281e+00,-9.155478477478027344e+00,-9.209514617919921875e+00,-9.478802680969238281e+00,-9.595449447631835938e+00,-9.563669204711914062e+00,-9.685929298400878906e+00,-9.656541824340820312e+00,-9.569118499755859375e+00,-8.971230506896972656e+00,-9.012884140014648438e+00,-8.823795318603515625e+00,-8.388725280761718750e+00
-3.984566926956176758e+00,-4.505745410919189453e+00,-6.542613029479980469e+00,-5.256025791168212891e+00,-5.249596595764160156e+00,-6.514646053314208984e+00,-5.235220909118652344e+00,-5.234728813171386719e+00,-5.236664772033691406e+00,-4.692856311798095703e+00,-4.698987007141113281e+00,-2.980030536651611328e+00,-7.171951293945312500e+00,nan,nan,nan,nan,nan,nan,nan,nan,nan,nan,nan,nan,-2.480240345001220703e+00,-2.446564197540283203e+00,-2.903427124023437500e+00,-2.721258163452148438e+00,nan,-2.316397190093994141e+00,-2.311906337738037109e+00,nan,nan,-7.600636005401611328e+00,-7.723897933959960938e+00,-7.701684951782226562e+00,-7.658840179443359375e+00,-7.806561470031738281e+00,-7.779077529907226562e+00,-7.854434013366699219e+00,-7.929492473602294922e+00,-7.932931423187255859e+00,-8.121199607849121094e+00,-8.069252967834472656e+00,-6.102141857147216797e+00,-8.121443748474121094e+00,-8.246604919433593750e+00,-8.134503364562988281e+00,-2.531948566436767578e+00,-8.464302062988281250e+00,-6.590007305145263672e+00,-8.566622734069824219e+00,-8.681055068969726562e+00,-8.676524162292480469e+00,-8.788994789123535156e+00,-8.812416076660156250e+00,-8.845389366149902344e+00,-8.885623931884765625e+00,-8.939700126647949219e+00,-8.973041534423828125e+00,-8.947675704956054688e+00,-8.894659996032714844e+00,-9.118053436279296875e+00,-8.997067451477050781e+00,-9.135932922363281250e+00,-9.152613639831542969e+00,-9.203037261962890625e+00,-9.178482055664062500e+00,-9.162579536437988281e+00,-6.682552337646484375e+00,-6.676131248474121094e+00,-6.669130325317382812e+00,-6.046932220458984375e+00,-6.651169776916503906e+00,-6.641668319702148438e+00,-7.345941066741943359e+00,-4.183108329772949219e+00,-8.883541107177734375e+00,-8.423362731933593750e+00,-8.391147613525390625e+00,-7.780844688415527344e+00,-7.786367893218994141e+00,-7.240102291107177734e+00,-5.522673606872558594e+00,-5.348216056823730469e+00,-7.738203525543212891e+00,-7.734142303466796875e+00,-6.510510921478271484e+00,-2.327725410461425781e+00,-2.159779548645019531e+00,-6.596480369567871094e+00,-2.394846439361572266e+00,-9.604917526245117188e+00,-9.645460128784179688e+00,-4.059117317199707031e+00,-4.144826889038085938e+00,-3.782780170440673828e+00,-5.847687244415283203e+00,-3.568324804306030273e+00,-4.902041912078857422e+00,-3.293525218963623047e+00,-3.537605524063110352e+00,-2.953385829925537109e+00,-4.526463508605957031e+00,-4.519754886627197266e+00,-4.615777015686035156e+00,-4.716836929321289062e+00,-4.714548110961914062e+00,-4.773007869720458984e+00,-9.164223670959472656e+00,-9.754924774169921875e+00,-9.606747627258300781e+00,-8.844429969787597656e+00,-8.215403556823730469e+00,-8.421452522277832031e+00,-9.011804580688476562e+00,-9.002478599548339844e+00,-8.575935363769531250e+00,-8.668995857238769531e+00,-8.304580688476562500e+00,-9.344973564147949219e+00,-8.416926383972167969e+00,-8.662162780761718750e+00,-9.922086715698242188e+00,-9.963886260986328125e+00,-9.921674728393554688e+00,-6.420693874359130859e+00,-6.970092773437500000e+00,-7.428232669830322266e+00,-7.593454360961914062e+00,-7.238218784332275391e+00,-6.926998615264892578e+00,-8.041772842407226562e+00,-8.151632308959960938e+00,nan,-9.893958091735839844e+00,-1.006654739379882812e+01,-8.262730598449707031e+00,nan,nan,-8.251387596130371094e+00,-8.367264747619628906e+00,-8.450529098510742188e+00,-8.326930999755859375e+00,-8.534486770629882812e+00,-8.913940429687500000e+00,-9.037297248840332031e+00,-9.151473045349121094e+00,-9.176766395568847656e+00,-9.464390754699707031e+00,-8.981536865234375000e+00,-9.186981201171875000e+00,-8.910873413085937500e+00,-8.821666717529296875e+00,-9.555015563964843750e+00,-9.699039459228515625e+00,-8.527598381042480469e+00,-9.452385902404785156e+00,-9.662802696228027344e+00,-9.767981529235839844e+00,-8.766473770141601562e+00,-8.433762550354003906e+00,-8.649449348449707031e+00,-8.654080390930175781e+00
-3.941192626953125000e+00,-4.513001441955566406e+00,-6.049899101257324219e+00,-6.041477680206298828e+00,-6.025848388671875000e+00,-6.577219486236572266e+00,-4.522878646850585938e+00,-6.492283821105957031e+00,-2.908558368682861328e+00,-3.019741535186767578e+00,-7.438340663909912109e+00,nan,nan,nan,nan,nan,nan,nan,nan,nan,nan,nan,nan,nan,nan,nan,-2.459098339080810547e+00,-3.027452945709228516e+00,-2.737837791442871094e+00,-2.017905712127685547e+00,nan,-7.582985401153564453e+00,nan,nan,nan,-7.650949954986572266e+00,-7.813442230224609375e+00,-7.806550502777099609e+00,-7.881388664245605469e+00,-7.943449020385742188e+00,-7.907180786132812500e+00,-3.088921070098876953e+00,-8.066490173339843750e+00,-8.183341979980468750e+00,-8.044274330139160156e+00,-8.145854949951171875e+00,-8.362910270690917969e+00,-8.366127014160156250e+00,-8.129031181335449219e+00,-8.144102096557617188e+00,-8.464688301086425781e+00,-8.440011978149414062e+00,nan,-8.795519828796386719e+00,-8.742030143737792969e+00,-8.907705307006835938e+00,-8.897995948791503906e+00,-9.030727386474609375e+00,-8.974475860595703125e+00,-9.025109291076660156e+00,-9.023828506469726562e+00,-9.054564476013183594e+00,-9.062561035156250000e+00,-9.073143005371093750e+00,-9.164273262023925781e+00,-9.161457061767578125e+00,-9.155563354492187500e+00,-4.514841079711914062e+00,-4.481515884399414062e+00,-4.665058135986328125e+00,-4.504265785217285156e+00,-7.282698154449462891e+00,-6.426191806793212891e+00,-8.344877243041992188e+00,-7.252546310424804688e+00,-8.435298919677734375e+00,-7.303726196289062500e+00,-9.007145881652832031e+00,-8.779852867126464844e+00,-8.981842041015625000e+00,-7.789184570312500000e+00,-8.368149757385253906e+00,-7.770597457885742188e+00,-8.342320442199707031e+00,-7.751025199890136719e+00,-5.386798858642578125e+00,-4.300630569458007812e+00,-4.229681015014648438e+00,-2.421712875366210938e+00,-3.106727123260498047e+00,-9.318862915039062500e+00,-2.252221107482910156e+00,-2.397285938262939453e+00,-5.757844448089599609e+00,-2.302246093750000000e+00,-3.975909709930419922e+00,-3.993466854095458984e+00,-3.694341659545898438e+00,-3.678180932998657227e+00,-3.468602895736694336e+00,-3.524709224700927734e+00,-4.903323650360107422e+00,-4.842020034790039062e+00,-4.543748378753662109e+00,-9.867801666259765625e+00,-4.548237800598144531e+00,-4.619661331176757812e+00,-9.775135993957519531e+00,-9.633886337280273438e+00,-9.500659942626953125e+00,-9.739395141601562500e+00,-9.895549774169921875e+00,-9.745230674743652344e+00,-8.889359474182128906e+00,-8.719639778137207031e+00,-8.047406196594238281e+00,-9.064354896545410156e+00,-8.300442695617675781e+00,-8.819873809814453125e+00,-8.492551803588867188e+00,-8.427801132202148438e+00,-8.377115249633789062e+00,-8.875304222106933594e+00,-7.910295486450195312e+00,-7.954474449157714844e+00,-8.078190803527832031e+00,-6.354228973388671875e+00,-6.357389450073242188e+00,-6.949392795562744141e+00,-6.383663654327392578e+00,-7.002379417419433594e+00,-6.958628177642822266e+00,-6.955809593200683594e+00,-6.782781600952148438e+00,-9.931312561035156250e+00,-1.001384544372558594e+01,-1.003484344482421875e+01,-9.122235298156738281e+00,nan,-8.364376068115234375e+00,nan,-8.206838607788085938e+00,-8.788284301757812500e+00,-8.822537422180175781e+00,-8.839889526367187500e+00,-8.468050003051757812e+00,-8.953428268432617188e+00,-8.969970703125000000e+00,-9.580737113952636719e+00,-9.230150222778320312e+00,-8.846859931945800781e+00,-8.667200088500976562e+00,-8.992163658142089844e+00,-7.104276180267333984e+00,-8.730892181396484375e+00,-9.539153099060058594e+00,-9.640377998352050781e+00,-9.711327552795410156e+00,-8.434282302856445312e+00,-8.301497459411621094e+00,-9.222986221313476562e+00,-9.610507011413574219e+00,-9.484401702880859375e+00,-8.606805801391601562e+00,-8.664743423461914062e+00
-7.531900882720947266e+00,-4.054772377014160156e+00,-5.346205711364746094e+00,-6.049386978149414062e+00,-6.040872097015380859e+00,-2.697576522827148438e+00,-6.750409126281738281e+00,-6.511764526367187500e+00,-3.023797988891601562e+00,-7.506614208221435547e+00,nan,-7.482069015502929688e+00,nan,-7.385428428649902344e+00,-7.391461372375488281e+00,-7.018414497375488281e+00,nan,nan,nan,nan,nan,-2.303657054901123047e+00,nan,-2.207721233367919922e+00,-2.208661556243896484e+00,nan,-2.255646705627441406e+00,-2.977178573608398438e+00,nan,nan,nan,nan,nan,nan,nan,-7.907466411590576172e+00,-7.922117710113525391e+00,-7.563432216644287109e+00,-2.689654827117919922e+00,-8.108056068420410156e+00,-8.098495483398437500e+00,-8.156191825866699219e+00,-8.138610839843750000e+00,-8.307253837585449219e+00,-8.037352561950683594e+00,-8.202301025390625000e+00,-8.133797645568847656e+00,-7.997736930847167969e+00,-8.047221183776855469e+00,-8.154347419738769531e+00,-2.243962287902832031e+00,-7.239285945892333984e+00,-8.673642158508300781e+00,-8.708402633666992188e+00,-8.787155151367187500e+00,-9.087782859802246094e+00,-8.864329338073730469e+00,-8.962303161621093750e+00,-8.959096908569335938e+00,-9.061108589172363281e+00,-9.189655303955078125e+00,-9.196193695068359375e+00,-9.183127403259277344e+00,-9.174135208129882812e+00,-9.158420562744140625e+00,-9.265317916870117188e+00,-9.245184898376464844e+00,-4.622835159301757812e+00,-7.313416004180908203e+00,-8.487854003906250000e+00,-8.294405937194824219e+00,-6.913060665130615234e+00,-6.830420494079589844e+00,-8.442260742187500000e+00,-8.427161216735839844e+00,-7.243617057800292969e+00,-7.243218421936035156e+00,-7.818643093109130859e+00,-8.380114555358886719e+00,-7.794074058532714844e+00,-7.780845642089843750e+00,-7.810519218444824219e+00,-7.762115955352783203e+00,-7.760609149932861328e+00,-7.750436782836914062e+00,-5.385809898376464844e+00,-7.751671791076660156e+00,-3.576726198196411133e+00,-5.299441814422607422e+00,-9.288405418395996094e+00,-9.270980834960937500e+00,-3.392709970474243164e+00,-9.512148857116699219e+00,-9.704133987426757812e+00,-3.247768402099609375e+00,-9.689691543579101562e+00,-5.711412906646728516e+00,-3.437372207641601562e+00,-3.650316238403320312e+00,-4.605978965759277344e+00,-3.452280282974243164e+00,-4.476070880889892578e+00,-3.270745277404785156e+00,-4.852664947509765625e+00,-9.976975440979003906e+00,-3.681964397430419922e+00,-9.852419853210449219e+00,-4.292683601379394531e+00,-9.645137786865234375e+00,-9.950016021728515625e+00,-9.384309768676757812e+00,-9.633467674255371094e+00,-8.442591667175292969e+00,-8.491476058959960938e+00,-8.177469253540039062e+00,-8.031454086303710938e+00,-9.204581260681152344e+00,-8.270396232604980469e+00,-7.975311756134033203e+00,-8.839538574218750000e+00,-8.176331520080566406e+00,-8.349858283996582031e+00,-8.645501136779785156e+00,-7.376358985900878906e+00,-9.992528915405273438e+00,-7.492572784423828125e+00,-7.727091789245605469e+00,-6.414732933044433594e+00,-6.490856170654296875e+00,-6.947732925415039062e+00,-6.969000339508056641e+00,-6.967652320861816406e+00,-6.942795753479003906e+00,-9.908730506896972656e+00,nan,-8.185182571411132812e+00,-8.250656127929687500e+00,-8.241855621337890625e+00,-8.402235984802246094e+00,-8.265812873840332031e+00,-9.150746345520019531e+00,-8.762012481689453125e+00,-9.106525421142578125e+00,-8.501255989074707031e+00,nan,-8.458907127380371094e+00,-8.465494155883789062e+00,-8.331809043884277344e+00,-9.809965133666992188e+00,-8.664644241333007812e+00,-9.059351921081542969e+00,-8.710369110107421875e+00,-9.399498939514160156e+00,-9.416313171386718750e+00,-8.273667335510253906e+00,-9.541386604309082031e+00,-9.645094871520996094e+00,-9.020337104797363281e+00,-9.706701278686523438e+00,-9.122134208679199219e+00,-8.443778991699218750e+00,-9.080185890197753906e+00,-9.547517776489257812e+00,-8.569544792175292969e+00,-9.115307807922363281e+00
-4.589857101440429688e+00,-5.332649230957031250e+00,-5.333890438079833984e+00,-5.319938659667968750e+00,-5.320466041564941406e+00,-2.692668914794921875e+00,-6.613159179687500000e+00,-6.678267478942871094e+00,-6.758691310882568359e+00,-6.742398738861083984e+00,nan,nan,nan,nan,-7.385709762573242188e+00,nan,nan,nan,nan,nan,nan,-2.271284580230712891e+00,nan,-2.241695880889892578e+00,-2.183801651000976562e+00,nan,nan,nan,-6.996003627777099609e+00,nan,nan,nan,nan,nan,nan,-7.854935646057128906e+00,-8.033571243286132812e+00,-7.997879028320312500e+00,-7.553668975830078125e+00,-8.099381446838378906e+00,-8.215317726135253906e+00,nan,-8.268481254577636719e+00,-8.261697769165039062e+00,-8.049889564514160156e+00,-8.062368392944335938e+00,-8.474727630615234375e+00,-2.887278079986572266e+00,-2.717565059661865234e+00,-5.673557758331298828e+00,-5.678625106811523438e+00,-5.668265819549560547e+00,-8.720731735229492188e+00,-8.797460556030273438e+00,nan,-9.059569358825683594e+00,-8.823190689086914062e+00,-8.835538864135742188e+00,-9.077408790588378906e+00,-9.020748138427734375e+00,-9.235870361328125000e+00,-9.171018600463867188e+00,-9.211092948913574219e+00,-9.182924270629882812e+00,-9.330338478088378906e+00,-9.358464241027832031e+00,-9.384567260742187500e+00,-9.447140693664550781e+00,-7.295690059661865234e+00,-9.207908630371093750e+00,-9.185052871704101562e+00,-6.689066886901855469e+00,-9.370842933654785156e+00,-8.418191909790039062e+00,-8.420086860656738281e+00,-8.410876274108886719e+00,-7.684918403625488281e+00,-8.386872291564941406e+00,-8.379904747009277344e+00,-7.828135490417480469e+00,-8.036703109741210938e+00,-6.017064094543457031e+00,-7.835689067840576172e+00,-7.750844001770019531e+00,-4.439340591430664062e+00,-7.630000114440917969e+00,-9.561996459960937500e+00,-4.905666351318359375e+00,-5.002987861633300781e+00,-9.315365791320800781e+00,-9.590501785278320312e+00,-5.923070430755615234e+00,-4.897484302520751953e+00,-9.655920028686523438e+00,-9.809641838073730469e+00,-3.657272815704345703e+00,-3.334521770477294922e+00,-9.867709159851074219e+00,-9.938404083251953125e+00,-4.612725734710693359e+00,-4.947984695434570312e+00,-4.307369232177734375e+00,-1.013989639282226562e+01,-3.165654659271240234e+00,-5.122600555419921875e+00,-2.961490154266357422e+00,-5.394979476928710938e+00,-9.553541183471679688e+00,-9.770751953125000000e+00,-1.002542304992675781e+01,-1.004989242553710938e+01,-9.955159187316894531e+00,-8.000782966613769531e+00,-8.378175735473632812e+00,-7.742253303527832031e+00,-8.196941375732421875e+00,-8.794297218322753906e+00,-8.326336860656738281e+00,-8.804103851318359375e+00,-7.972018241882324219e+00,-7.742069244384765625e+00,-8.186731338500976562e+00,-8.155764579772949219e+00,-7.821156024932861328e+00,-9.830492973327636719e+00,-7.172876358032226562e+00,-7.177765369415283203e+00,-9.825843811035156250e+00,-8.533475875854492188e+00,-6.488229274749755859e+00,-8.427690505981445312e+00,-7.036688327789306641e+00,-7.052159309387207031e+00,-8.122204780578613281e+00,-8.221542358398437500e+00,-9.764877319335937500e+00,-8.361636161804199219e+00,-8.446765899658203125e+00,-8.425163269042968750e+00,-8.476715087890625000e+00,-8.338102340698242188e+00,-9.179099082946777344e+00,-9.171339988708496094e+00,-8.646804809570312500e+00,-8.669887542724609375e+00,-8.763021469116210938e+00,-8.550021171569824219e+00,-8.424402236938476562e+00,-8.766252517700195312e+00,-9.798164367675781250e+00,-8.837546348571777344e+00,-8.468868255615234375e+00,-9.785479545593261719e+00,-9.427837371826171875e+00,-8.956707000732421875e+00,-8.429000854492187500e+00,-9.270661354064941406e+00,-8.884082794189453125e+00,-8.700690269470214844e+00,-8.542451858520507812e+00,-8.325318336486816406e+00,-9.021704673767089844e+00,-8.512256622314453125e+00,-9.097280502319335938e+00,-8.505155563354492188e+00
-6.109111785888671875e+00,-4.602829933166503906e+00,-4.622478485107421875e+00,-4.612166404724121094e+00,-5.545279502868652344e+00,-5.335746765136718750e+00,-4.601853370666503906e+00,-2.777574539184570312e+00,-3.003604412078857422e+00,-3.064335346221923828e+00,-7.477142810821533203e+00,nan,nan,nan,nan,nan,nan,nan,-2.548888683319091797e+00,nan,nan,-2.430017471313476562e+00,nan,nan,nan,nan,nan,nan,-7.004876613616943359e+00,nan,-7.395596981048583984e+00,-7.511246204376220703e+00,-2.329093933105468750e+00,nan,-8.085660934448242188e+00,-2.520647525787353516e+00,-2.491826534271240234e+00,-8.011831283569335938e+00,-8.197813987731933594e+00,-8.268139839172363281e+00,-8.259902000427246094e+00,-5.757491111755371094e+00,-8.254880905151367188e+00,nan,nan,-8.517287254333496094e+00,-8.523404121398925781e+00,nan,-5.691207408905029297e+00,-2.541073799133300781e+00,-8.696513175964355469e+00,-8.693709373474121094e+00,-8.747522354125976562e+00,-8.752733230590820312e+00,nan,-8.938549041748046875e+00,-8.889065742492675781e+00,-8.929730415344238281e+00,-8.945603370666503906e+00,-9.104723930358886719e+00,-9.205252647399902344e+00,-9.289939880371093750e+00,-9.511933326721191406e+00,-9.539502143859863281e+00,-9.541563987731933594e+00,-9.498358726501464844e+00,-9.496250152587890625e+00,-9.547146797180175781e+00,-5.786998271942138672e+00,-9.446880340576171875e+00,-9.428616523742675781e+00,-6.949602603912353516e+00,-9.474661827087402344e+00,-8.464897155761718750e+00,-8.381666183471679688e+00,-2.587535858154296875e+00,-8.389976501464843750e+00,-7.804936408996582031e+00,-8.322278022766113281e+00,-8.058232307434082031e+00,-8.058724403381347656e+00,-8.084439277648925781e+00,-5.680957794189453125e+00,-8.241809844970703125e+00,-4.258372306823730469e+00,-3.467518091201782227e+00,-5.068200111389160156e+00,-5.013617515563964844e+00,-9.765593528747558594e+00,-2.666323661804199219e+00,-3.631300687789916992e+00,-3.942088603973388672e+00,-2.476745605468750000e+00,-9.682906150817871094e+00,-6.447659015655517578e+00,-6.196666240692138672e+00,-3.484351158142089844e+00,-9.923507690429687500e+00,-5.683015823364257812e+00,-9.965975761413574219e+00,-4.744668483734130859e+00,-3.527660608291625977e+00,-3.457300901412963867e+00,-3.024346828460693359e+00,-5.028342723846435547e+00,-5.172858238220214844e+00,-2.705326080322265625e+00,-9.617824554443359375e+00,-9.932740211486816406e+00,-1.001044654846191406e+01,-9.686573982238769531e+00,-1.002169418334960938e+01,-8.543437004089355469e+00,-8.518487930297851562e+00,-8.731071472167968750e+00,-8.765916824340820312e+00,-8.198863029479980469e+00,-7.872455120086669922e+00,-7.847479820251464844e+00,-7.588813781738281250e+00,-7.583803653717041016e+00,-8.181721687316894531e+00,-8.173925399780273438e+00,-7.851419925689697266e+00,-9.342681884765625000e+00,-7.005983829498291016e+00,-6.839521884918212891e+00,-9.685556411743164062e+00,-1.004740905761718750e+01,-1.005020427703857422e+01,-7.085638999938964844e+00,-1.004840469360351562e+01,-7.998712062835693359e+00,nan,-8.213793754577636719e+00,-8.766923904418945312e+00,-8.865259170532226562e+00,-8.501260757446289062e+00,-8.951928138732910156e+00,-8.558162689208984375e+00,-8.638918876647949219e+00,-8.841883659362792969e+00,-8.254617691040039062e+00,-8.228984832763671875e+00,-8.433916091918945312e+00,-8.374698638916015625e+00,-8.334642410278320312e+00,-8.520776748657226562e+00,-8.529283523559570312e+00,-8.754749298095703125e+00,-8.703152656555175781e+00,-8.601771354675292969e+00,-9.296937942504882812e+00,-9.734816551208496094e+00,-9.712720870971679688e+00,-9.235701560974121094e+00,-9.002202033996582031e+00,-8.387982368469238281e+00,-9.213580131530761719e+00,-9.053269386291503906e+00,-8.948582649230957031e+00,-9.100177764892578125e+00,-9.120671272277832031e+00,-8.495871543884277344e+00,-8.584908485412597656e+00
-4.133493900299072266e+00,-5.876492500305175781e+00,-4.621701240539550781e+00,-4.625209808349609375e+00,-6.323893070220947266e+00,-5.352751731872558594e+00,-5.361247062683105469e+00,-6.796146869659423828e+00,-6.853958129882812500e+00,-6.805966377258300781e+00,nan,nan,nan,nan,nan,nan,nan,-2.396638870239257812e+00,nan,-2.380816936492919922e+00,-2.364169597625732422e+00,-2.174859046936035156e+00,nan,nan,nan,nan,nan,nan,-6.549756050109863281e+00,-7.008528232574462891e+00,-7.284387588500976562e+00,nan,-7.996864795684814453e+00,-7.967012882232666016e+00,-2.326083660125732422e+00,-8.171164512634277344e+00,-2.558341503143310547e+00,nan,-8.217682838439941406e+00,-8.219279289245605469e+00,-2.263363838195800781e+00,-2.563944339752197266e+00,-7.676679611206054688e+00,-2.687352657318115234e+00,-2.677711009979248047e+00,-8.551690101623535156e+00,-8.597008705139160156e+00,-5.597191333770751953e+00,-2.953239440917968750e+00,-8.240749359130859375e+00,-8.714138031005859375e+00,-8.849516868591308594e+00,-8.761884689331054688e+00,-9.022043228149414062e+00,-9.134687423706054688e+00,-9.161653518676757812e+00,-8.835542678833007812e+00,-9.004612922668457031e+00,-9.114625930786132812e+00,-9.165026664733886719e+00,-9.193125724792480469e+00,-9.421917915344238281e+00,-9.495388984680175781e+00,-9.532020568847656250e+00,-9.586926460266113281e+00,-9.577375411987304688e+00,-9.725446701049804688e+00,-9.727804183959960938e+00,-9.705763816833496094e+00,-5.556995391845703125e+00,-9.554233551025390625e+00,-9.661805152893066406e+00,-7.851625919342041016e+00,-7.913935661315917969e+00,-8.199602127075195312e+00,-2.602144718170166016e+00,-7.831069946289062500e+00,-7.765929698944091797e+00,-8.271632194519042969e+00,-8.107921600341796875e+00,-8.105169296264648438e+00,-5.647031784057617188e+00,-6.670522689819335938e+00,-2.689683437347412109e+00,-3.700841665267944336e+00,-3.014894008636474609e+00,-3.083726882934570312e+00,-9.860714912414550781e+00,-4.980061054229736328e+00,-9.818604469299316406e+00,-9.637051582336425781e+00,-5.910865783691406250e+00,-4.755030632019042969e+00,-5.878570556640625000e+00,-6.123700618743896484e+00,-6.184941291809082031e+00,-3.801270008087158203e+00,-3.790721893310546875e+00,-3.892918109893798828e+00,-1.001305103302001953e+01,-6.912711620330810547e+00,-7.429598331451416016e+00,-4.716338157653808594e+00,-5.038797378540039062e+00,-1.001663398742675781e+01,-3.062253475189208984e+00,-1.004125785827636719e+01,-9.888568878173828125e+00,-1.008135509490966797e+01,-7.312757492065429688e+00,-8.669031143188476562e+00,-1.016442012786865234e+01,-1.016347789764404297e+01,-8.589056015014648438e+00,-8.617706298828125000e+00,-8.285734176635742188e+00,-8.185845375061035156e+00,-7.577955722808837891e+00,-7.440361499786376953e+00,-7.637767314910888672e+00,-7.897979736328125000e+00,-7.965865135192871094e+00,-7.939223766326904297e+00,-7.958909511566162109e+00,-9.582602500915527344e+00,-9.755989074707031250e+00,-9.791519165039062500e+00,-9.519045829772949219e+00,-9.795704841613769531e+00,-7.855504035949707031e+00,-9.767465591430664062e+00,nan,nan,nan,-8.797039031982421875e+00,-8.762432098388671875e+00,-8.575843811035156250e+00,-8.592571258544921875e+00,-8.544925689697265625e+00,-8.618121147155761719e+00,-8.407890319824218750e+00,-8.399289131164550781e+00,-8.245557785034179688e+00,-8.406909942626953125e+00,-8.324215888977050781e+00,-8.287097930908203125e+00,-8.265150070190429688e+00,-8.756582260131835938e+00,-8.774074554443359375e+00,-9.591636657714843750e+00,-9.414350509643554688e+00,-8.562308311462402344e+00,-9.306512832641601562e+00,-8.727842330932617188e+00,-8.520386695861816406e+00,-8.659443855285644531e+00,-8.579803466796875000e+00,-8.503389358520507812e+00,-8.363883018493652344e+00,-8.401040077209472656e+00,-9.004609107971191406e+00,-8.403677940368652344e+00,-9.099634170532226562e+00,-8.434064865112304688e+00,-8.919996261596679688e+00
-2.874341964721679688e+00,-3.921376228332519531e+00,-5.413384914398193359e+00,-3.167551994323730469e+00,-5.376814842224121094e+00,-4.644136428833007812e+00,-3.080971717834472656e+00,-2.824750423431396484e+00,-3.099851608276367188e+00,-6.624105453491210938e+00,nan,-7.631166934967041016e+00,-6.989959239959716797e+00,nan,nan,nan,-7.385829925537109375e+00,-6.951095104217529297e+00,nan,nan,-2.371630191802978516e+00,-2.246818065643310547e+00,nan,nan,nan,nan,nan,nan,-6.351126670837402344e+00,-7.712553977966308594e+00,-7.586585521697998047e+00,-7.853389739990234375e+00,nan,-8.141086578369140625e+00,-2.265156269073486328e+00,-2.383246898651123047e+00,-2.291469097137451172e+00,nan,nan,nan,-2.990506172180175781e+00,-7.521926403045654297e+00,-7.619173526763916016e+00,-7.832472324371337891e+00,-2.627333641052246094e+00,-8.520965576171875000e+00,-2.686980247497558594e+00,-5.751135826110839844e+00,-5.644208908081054688e+00,-5.719398021697998047e+00,-8.370188713073730469e+00,-8.646887779235839844e+00,-6.570196628570556641e+00,-9.254304885864257812e+00,-8.978525161743164062e+00,-8.965787887573242188e+00,-8.911217689514160156e+00,-9.104968070983886719e+00,-9.425733566284179688e+00,-9.255697250366210938e+00,-9.219935417175292969e+00,-9.591445922851562500e+00,-9.523721694946289062e+00,-9.597405433654785156e+00,-9.633887290954589844e+00,-9.738099098205566406e+00,-9.773708343505859375e+00,-9.855587959289550781e+00,-9.886487960815429688e+00,-9.906342506408691406e+00,-5.530260562896728516e+00,-2.679565906524658203e+00,-5.418344497680664062e+00,-9.547630310058593750e+00,-9.427314758300781250e+00,-9.558528900146484375e+00,-4.185804843902587891e+00,-3.622381925582885742e+00,-7.780835151672363281e+00,-8.090003013610839844e+00,-8.283562660217285156e+00,-5.515051364898681641e+00,-5.828252315521240234e+00,-3.736282825469970703e+00,-3.703387498855590820e+00,-3.935461282730102539e+00,-6.063830375671386719e+00,-4.873766422271728516e+00,-3.688285827636718750e+00,-9.644750595092773438e+00,-5.396309852600097656e+00,-9.740541458129882812e+00,-9.656313896179199219e+00,-2.486641883850097656e+00,-6.438942432403564453e+00,-1.001897716522216797e+01,-2.540643692016601562e+00,-2.592908859252929688e+00,-5.658783435821533203e+00,-7.004193305969238281e+00,-7.035313606262207031e+00,-6.889254093170166016e+00,-4.716840744018554688e+00,-3.365416526794433594e+00,-2.987363338470458984e+00,-4.888546943664550781e+00,-5.325530052185058594e+00,-4.761017799377441406e+00,-7.469507694244384766e+00,-1.017074775695800781e+01,-1.024360752105712891e+01,-1.003155803680419922e+01,-1.026468467712402344e+01,-1.025658130645751953e+01,-8.401878356933593750e+00,-8.638291358947753906e+00,-7.658565044403076172e+00,-7.593422412872314453e+00,-8.733723640441894531e+00,-8.424207687377929688e+00,-8.472718238830566406e+00,-8.241786003112792969e+00,-7.729151725769042969e+00,-7.746609687805175781e+00,-7.536217212677001953e+00,-9.952059745788574219e+00,-9.509205818176269531e+00,-9.718024253845214844e+00,-9.569686889648437500e+00,-7.990766048431396484e+00,-7.180095672607421875e+00,-7.220899581909179688e+00,-8.651703834533691406e+00,-8.761299133300781250e+00,-8.821684837341308594e+00,-8.905442237854003906e+00,-8.607725143432617188e+00,-8.703972816467285156e+00,-8.802489280700683594e+00,-8.614368438720703125e+00,-8.489175796508789062e+00,-8.518162727355957031e+00,-8.612894058227539062e+00,-8.243075370788574219e+00,-8.263356208801269531e+00,-9.116632461547851562e+00,-8.261913299560546875e+00,-8.863187789916992188e+00,-8.652598381042480469e+00,-8.780055999755859375e+00,-8.705826759338378906e+00,-8.760679244995117188e+00,-9.228086471557617188e+00,-8.628341674804687500e+00,-9.199089050292968750e+00,-8.619036674499511719e+00,-8.468658447265625000e+00,-8.650373458862304688e+00,-8.501895904541015625e+00,-8.505040168762207031e+00,-8.444832801818847656e+00,-8.400711059570312500e+00,-8.962664604187011719e+00,-8.889986991882324219e+00,-8.914521217346191406e+00
-5.422801017761230469e+00,-3.691720247268676758e+00,-5.423589706420898438e+00,-8.096796989440917969e+00,-6.346476078033447266e+00,-5.415234088897705078e+00,-5.381213188171386719e+00,-5.396145820617675781e+00,-6.098855495452880859e+00,nan,nan,-7.507029533386230469e+00,-7.331321239471435547e+00,nan,-7.352383136749267578e+00,-7.359628200531005859e+00,-7.677265167236328125e+00,-6.970722675323486328e+00,nan,-3.090345859527587891e+00,nan,nan,-2.258544921875000000e+00,-2.268822669982910156e+00,nan,-3.309690475463867188e+00,-3.286845684051513672e+00,nan,-6.352823734283447266e+00,-6.280059814453125000e+00,-6.192733287811279297e+00,nan,-8.141802787780761719e+00,-2.298805236816406250e+00,-2.295103549957275391e+00,-2.631107330322265625e+00,-2.351570129394531250e+00,-2.337775707244873047e+00,-2.799077510833740234e+00,-2.815752029418945312e+00,-2.879636764526367188e+00,-2.918457984924316406e+00,-7.523803234100341797e+00,nan,-2.663187026977539062e+00,-5.438236236572265625e+00,-5.677095890045166016e+00,-5.760418891906738281e+00,-2.825180530548095703e+00,-8.870360374450683594e+00,-5.817843437194824219e+00,-9.145582199096679688e+00,-6.609056949615478516e+00,-6.563965320587158203e+00,-9.222105026245117188e+00,-9.251202583312988281e+00,-9.233475685119628906e+00,-9.207304954528808594e+00,-9.546895027160644531e+00,-9.488650321960449219e+00,-9.707046508789062500e+00,-9.529832839965820312e+00,nan,nan,-9.801040649414062500e+00,-9.799871444702148438e+00,-9.836565017700195312e+00,-9.938712120056152344e+00,-1.001432228088378906e+01,-9.925067901611328125e+00,-9.955017089843750000e+00,-9.883924484252929688e+00,-9.936586380004882812e+00,-1.000262928009033203e+01,-2.440688610076904297e+00,-7.806948184967041016e+00,-5.437798500061035156e+00,-7.760489463806152344e+00,-7.761413097381591797e+00,-9.898039817810058594e+00,-5.402657508850097656e+00,-5.259905815124511719e+00,-5.823917388916015625e+00,-3.525750875473022461e+00,-2.778800010681152344e+00,-5.168211936950683594e+00,-9.693047523498535156e+00,-9.585355758666992188e+00,-7.317039489746093750e+00,-4.592108726501464844e+00,-5.727757453918457031e+00,-5.426485061645507812e+00,-9.806648254394531250e+00,-3.546229124069213867e+00,-3.681158781051635742e+00,-6.458991050720214844e+00,-6.579000473022460938e+00,-6.783751487731933594e+00,-6.485116958618164062e+00,-5.212284564971923828e+00,-7.063536167144775391e+00,-4.793188095092773438e+00,-4.794666290283203125e+00,-6.524731159210205078e+00,-5.354178428649902344e+00,-5.334512710571289062e+00,-4.909433364868164062e+00,-9.740128517150878906e+00,-9.689351081848144531e+00,-9.762397766113281250e+00,-1.029281711578369141e+01,-9.783813476562500000e+00,-7.805239677429199219e+00,-8.659052848815917969e+00,-7.818170070648193359e+00,-7.653970718383789062e+00,-7.666724681854248047e+00,-7.682242393493652344e+00,-7.680352210998535156e+00,-7.701328754425048828e+00,-8.482084274291992188e+00,-8.005839347839355469e+00,-7.618533134460449219e+00,-7.829908847808837891e+00,-7.005199909210205078e+00,-6.646358013153076172e+00,-6.869436740875244141e+00,-9.553233146667480469e+00,-9.925254821777343750e+00,-7.594154834747314453e+00,-9.612360000610351562e+00,-9.914724349975585938e+00,-8.568987846374511719e+00,-8.940723419189453125e+00,-8.906065940856933594e+00,-8.382329940795898438e+00,nan,-9.456354141235351562e+00,-8.452980995178222656e+00,-9.369034767150878906e+00,-8.794200897216796875e+00,-7.932964801788330078e+00,-8.359648704528808594e+00,-8.232624053955078125e+00,-8.219244003295898438e+00,-8.129809379577636719e+00,-8.718612670898437500e+00,-8.638825416564941406e+00,-8.581685066223144531e+00,-8.802260398864746094e+00,-8.867662429809570312e+00,-8.748585700988769531e+00,-9.221595764160156250e+00,-8.803474426269531250e+00,-8.826880455017089844e+00,-8.712554931640625000e+00,-8.567504882812500000e+00,-8.632839202880859375e+00,-8.529055595397949219e+00,-8.437941551208496094e+00,-8.510636329650878906e+00,-8.543916702270507812e+00,-8.505390167236328125e+00,-8.857983589172363281e+00,-8.563217163085937500e+00
-4.700773239135742188e+00,-5.432885169982910156e+00,-7.607243061065673828e+00,-5.439027786254882812e+00,-5.417787551879882812e+00,-5.418433189392089844e+00,nan,-5.399695873260498047e+00,-6.108197212219238281e+00,nan,nan,nan,-7.540994644165039062e+00,-7.940438270568847656e+00,-2.523846626281738281e+00,-2.235260009765625000e+00,-6.851224899291992188e+00,-2.210039138793945312e+00,-3.151608467102050781e+00,-3.095994949340820312e+00,-2.234852790832519531e+00,nan,-2.294148921966552734e+00,nan,-3.233485698699951172e+00,-3.303276062011718750e+00,-3.302649021148681641e+00,nan,-6.172253608703613281e+00,-6.572234630584716797e+00,-7.032171249389648438e+00,-7.947626113891601562e+00,nan,nan,-2.636728286743164062e+00,-2.653130531311035156e+00,-7.576289176940917969e+00,-3.028987407684326172e+00,-2.445428371429443359e+00,-2.357434749603271484e+00,-7.644476890563964844e+00,-7.657409191131591797e+00,-3.057976722717285156e+00,-2.863330841064453125e+00,-8.527105331420898438e+00,-5.485684871673583984e+00,-5.406408309936523438e+00,-8.924472808837890625e+00,-5.776652336120605469e+00,-8.480609893798828125e+00,-6.614869117736816406e+00,-9.107072830200195312e+00,-6.643887519836425781e+00,-6.831485271453857422e+00,-9.255128860473632812e+00,-9.563194274902343750e+00,-9.538763999938964844e+00,-9.528995513916015625e+00,-9.690960884094238281e+00,nan,nan,-1.012308025360107422e+01,-9.832939147949218750e+00,nan,-9.702816009521484375e+00,-9.531654357910156250e+00,-9.966180801391601562e+00,-9.948696136474609375e+00,-9.957298278808593750e+00,-9.947125434875488281e+00,-9.980379104614257812e+00,-2.748300075531005859e+00,-2.822412490844726562e+00,-3.928963184356689453e+00,-5.297235488891601562e+00,-5.464498043060302734e+00,-7.777767181396484375e+00,-1.005203723907470703e+01,-9.881647109985351562e+00,-2.773019313812255859e+00,-5.187766075134277344e+00,-1.004130554199218750e+01,-5.787013053894042969e+00,-5.805992126464843750e+00,-2.738080978393554688e+00,-5.169238090515136719e+00,-9.748987197875976562e+00,-5.887993812561035156e+00,-2.845654487609863281e+00,-4.551992893218994141e+00,-5.249041557312011719e+00,-2.109025478363037109e+00,-5.203534126281738281e+00,-9.833177566528320312e+00,-2.448682785034179688e+00,-6.446732997894287109e+00,-6.486527442932128906e+00,-5.706739425659179688e+00,-6.487080097198486328e+00,-7.018337249755859375e+00,-7.143900871276855469e+00,-7.143655776977539062e+00,-7.051282405853271484e+00,-4.927505493164062500e+00,-5.350718498229980469e+00,-5.346557617187500000e+00,-5.052545547485351562e+00,-5.287996292114257812e+00,-9.378464698791503906e+00,-6.602131366729736328e+00,-5.361342906951904297e+00,-8.020435333251953125e+00,-8.033372879028320312e+00,-9.773967742919921875e+00,-7.914210796356201172e+00,-7.645160198211669922e+00,-7.584537982940673828e+00,-7.674981594085693359e+00,-8.421147346496582031e+00,-8.139005661010742188e+00,-7.786605834960937500e+00,-7.711335659027099609e+00,-5.854447364807128906e+00,-7.096282482147216797e+00,-6.836224079132080078e+00,-7.492378234863281250e+00,-7.220019340515136719e+00,-7.568508148193359375e+00,-6.862665176391601562e+00,-9.532362937927246094e+00,-7.355679512023925781e+00,-7.503189086914062500e+00,-7.065491199493408203e+00,-6.780837059020996094e+00,-8.398055076599121094e+00,nan,-8.083930015563964844e+00,-8.181086540222167969e+00,-8.176043510437011719e+00,-8.992225646972656250e+00,-9.406645774841308594e+00,-7.883077621459960938e+00,-9.383419036865234375e+00,-8.269065856933593750e+00,-8.115478515625000000e+00,-8.872450828552246094e+00,-8.577161788940429688e+00,-8.611471176147460938e+00,-8.665329933166503906e+00,-8.788522720336914062e+00,-8.617348670959472656e+00,-9.325534820556640625e+00,-9.198884010314941406e+00,-8.722859382629394531e+00,-8.781015396118164062e+00,-9.253546714782714844e+00,-8.641077041625976562e+00,-8.486488342285156250e+00,-8.438133239746093750e+00,-8.392030715942382812e+00,-8.523880004882812500e+00,-8.569051742553710938e+00,-8.511976242065429688e+00,-8.386528015136718750e+00,-8.351878166198730469e+00
-5.704341888427734375e+00,-3.510973930358886719e+00,-7.629106998443603516e+00,-7.628018379211425781e+00,-5.439963817596435547e+00,nan,nan,-6.128225803375244141e+00,-7.684546470642089844e+00,nan,nan,-7.326677799224853516e+00,-7.505841732025146484e+00,-7.553727626800537109e+00,-7.937444686889648438e+00,-7.704664230346679688e+00,-6.990880966186523438e+00,-6.980415821075439453e+00,-7.826796054840087891e+00,-3.131492137908935547e+00,-3.230143070220947266e+00,nan,nan,nan,nan,nan,nan,-5.770333766937255859e+00,-5.107399940490722656e+00,-6.584574699401855469e+00,-6.129563808441162109e+00,-3.005861282348632812e+00,nan,-4.754396438598632812e+00,-4.849824428558349609e+00,-4.928005695343017578e+00,-7.501210689544677734e+00,-3.727479457855224609e+00,-3.740617752075195312e+00,-8.929413795471191406e+00,-7.676451683044433594e+00,-8.007197380065917969e+00,-8.637416839599609375e+00,-4.439594268798828125e+00,-8.688811302185058594e+00,-8.858036994934082031e+00,-8.896679878234863281e+00,-5.803240299224853516e+00,-8.911056518554687500e+00,-6.373269557952880859e+00,-6.655721664428710938e+00,-9.305929183959960938e+00,-9.256689071655273438e+00,-9.278062820434570312e+00,-9.215084075927734375e+00,-9.571577072143554688e+00,-9.624202728271484375e+00,-9.564765930175781250e+00,-9.709072113037109375e+00,-9.723451614379882812e+00,-9.892190933227539062e+00,-9.915158271789550781e+00,nan,nan,-9.600368499755859375e+00,nan,-9.670322418212890625e+00,nan,-1.006350421905517578e+01,-1.008938026428222656e+01,-1.013698863983154297e+01,-1.010048484802246094e+01,-2.799035072326660156e+00,-1.009019184112548828e+01,-3.706984758377075195e+00,-3.877449274063110352e+00,-3.453336477279663086e+00,-9.955189704895019531e+00,-4.884664535522460938e+00,-4.853569984436035156e+00,-5.088238716125488281e+00,-2.579206466674804688e+00,-3.356720924377441406e+00,-5.835937500000000000e+00,-2.470577239990234375e+00,-9.977050781250000000e+00,-5.970839977264404297e+00,-2.863636970520019531e+00,-4.478988170623779297e+00,-4.494286537170410156e+00,-4.376190662384033203e+00,-4.156256675720214844e+00,-5.364047527313232422e+00,-4.300861835479736328e+00,-5.343394279479980469e+00,-5.341802597045898438e+00,-5.579304218292236328e+00,-6.826584339141845703e+00,-7.076197147369384766e+00,-7.075837135314941406e+00,-7.138055801391601562e+00,-7.022820472717285156e+00,-4.737586975097656250e+00,-9.166391372680664062e+00,-3.606581449508666992e+00,-5.141447067260742188e+00,-5.474999427795410156e+00,-5.433979988098144531e+00,-9.102517127990722656e+00,-9.152976036071777344e+00,-8.484518051147460938e+00,-7.037017345428466797e+00,-7.693076610565185547e+00,-8.113155364990234375e+00,-7.861933231353759766e+00,-9.982571601867675781e+00,-7.963941574096679688e+00,-7.454078674316406250e+00,-8.294713020324707031e+00,-8.489915847778320312e+00,-7.253264904022216797e+00,-6.753464698791503906e+00,-7.430897235870361328e+00,-5.981588363647460938e+00,-6.720704078674316406e+00,-6.534797191619873047e+00,-6.854184150695800781e+00,-7.505883693695068359e+00,-7.404123306274414062e+00,-7.827803134918212891e+00,-6.928573131561279297e+00,-6.859377861022949219e+00,-6.737249374389648438e+00,-7.536412715911865234e+00,-8.769986152648925781e+00,-8.730881690979003906e+00,-8.356774330139160156e+00,-8.267548561096191406e+00,-8.231031417846679688e+00,-8.191452026367187500e+00,-7.896139144897460938e+00,-7.939514636993408203e+00,-7.857723236083984375e+00,-8.062088012695312500e+00,-7.987834930419921875e+00,-8.779192924499511719e+00,-8.383837699890136719e+00,-8.500322341918945312e+00,-8.863016128540039062e+00,-8.815208435058593750e+00,-8.674221038818359375e+00,-9.085379600524902344e+00,-8.616582870483398438e+00,-8.580725669860839844e+00,-9.032011985778808594e+00,-9.044786453247070312e+00,-8.647396087646484375e+00,-8.582835197448730469e+00,-8.514735221862792969e+00,-8.336811065673828125e+00,-8.479997634887695312e+00,-8.547972679138183594e+00,-8.369861602783203125e+00,-8.299612998962402344e+00,-8.275665283203125000e+00
-5.863821983337402344e+00,-7.417297840118408203e+00,-7.636287689208984375e+00,-7.870609760284423828e+00,-5.449694633483886719e+00,-7.841035842895507812e+00,-8.057369232177734375e+00,-6.145981311798095703e+00,nan,-7.522656440734863281e+00,-7.804502010345458984e+00,-7.052021980285644531e+00,-8.040778160095214844e+00,-7.292328834533691406e+00,nan,-6.777978897094726562e+00,-6.971003532409667969e+00,-3.090476989746093750e+00,-3.074626445770263672e+00,-3.271677017211914062e+00,-3.057890892028808594e+00,nan,nan,nan,nan,nan,-7.877183914184570312e+00,-5.117607116699218750e+00,-5.347335815429687500e+00,-6.594155788421630859e+00,-7.618055343627929688e+00,-4.683349609375000000e+00,-4.689019680023193359e+00,-4.840886116027832031e+00,-7.327557086944580078e+00,-2.864415168762207031e+00,-8.682726860046386719e+00,-8.718892097473144531e+00,-3.774220943450927734e+00,-7.701798915863037109e+00,-4.735436439514160156e+00,-8.730634689331054688e+00,-8.679099082946777344e+00,-4.362673759460449219e+00,-8.781970977783203125e+00,-8.681084632873535156e+00,-8.880882263183593750e+00,-5.819916725158691406e+00,-9.255073547363281250e+00,-9.108226776123046875e+00,-9.289985656738281250e+00,-9.344996452331542969e+00,-9.335064888000488281e+00,-6.933173179626464844e+00,-6.922262191772460938e+00,-9.928879737854003906e+00,-9.754517555236816406e+00,-2.838092803955078125e+00,-9.827412605285644531e+00,-9.843925476074218750e+00,-9.906793594360351562e+00,-9.986213684082031250e+00,nan,-1.011299324035644531e+01,-9.525215148925781250e+00,-9.758739471435546875e+00,-9.714221000671386719e+00,-9.957324028015136719e+00,-1.004996490478515625e+01,-9.966291427612304688e+00,-2.756266593933105469e+00,-1.043117237091064453e+01,-1.003678703308105469e+01,-3.896614313125610352e+00,-3.763183593750000000e+00,-1.007804679870605469e+01,-1.013947486877441406e+01,-4.485077381134033203e+00,-4.653651237487792969e+00,-1.010824966430664062e+01,-4.857700347900390625e+00,-1.001772594451904297e+01,-5.822056770324707031e+00,-5.813066959381103516e+00,-2.406499385833740234e+00,-3.827514648437500000e+00,-3.686707496643066406e+00,-2.191504001617431641e+00,-4.267354011535644531e+00,-5.307269096374511719e+00,-5.789687156677246094e+00,-4.237471580505371094e+00,-3.873888731002807617e+00,-3.802778720855712891e+00,-5.461164951324462891e+00,-5.367817878723144531e+00,-5.585002422332763672e+00,-7.021624088287353516e+00,-7.052584648132324219e+00,-3.562252283096313477e+00,-7.331548213958740234e+00,-4.869110584259033203e+00,-3.660403251647949219e+00,-3.413196086883544922e+00,-3.720784664154052734e+00,-3.699808597564697266e+00,-5.533495903015136719e+00,-9.573922157287597656e+00,-8.953209877014160156e+00,nan,-9.585597991943359375e+00,-9.080519676208496094e+00,-8.683996200561523438e+00,-7.362642288208007812e+00,-7.737235069274902344e+00,-7.904712677001953125e+00,-7.941525459289550781e+00,-7.951669216156005859e+00,-8.320007324218750000e+00,-6.665824890136718750e+00,-7.789987564086914062e+00,-5.648537635803222656e+00,-6.952624320983886719e+00,-7.408489227294921875e+00,-5.466208457946777344e+00,-6.880152702331542969e+00,-7.523055076599121094e+00,-7.426976680755615234e+00,-7.488407611846923828e+00,-8.319256782531738281e+00,-7.723224163055419922e+00,-7.904361248016357422e+00,-7.015007972717285156e+00,-9.029946327209472656e+00,-8.135852813720703125e+00,-8.818758010864257812e+00,-8.758835792541503906e+00,-9.082193374633789062e+00,-8.190321922302246094e+00,-8.212324142456054688e+00,-8.189237594604492188e+00,-7.925438880920410156e+00,-7.917253971099853516e+00,-8.852202415466308594e+00,-8.847519874572753906e+00,-8.300387382507324219e+00,-8.688960075378417969e+00,-8.299032211303710938e+00,-8.863350868225097656e+00,-8.792717933654785156e+00,-8.679058074951171875e+00,-8.525872230529785156e+00,-8.656137466430664062e+00,-8.590743064880371094e+00,-8.676362037658691406e+00,-8.666707038879394531e+00,-8.670496940612792969e+00,-8.515229225158691406e+00,-8.527049064636230469e+00,-8.422973632812500000e+00,-8.352734565734863281e+00,-8.508157730102539062e+00,-8.351668357849121094e+00,-8.353005409240722656e+00,-8.792812347412109375e+00
-5.835679054260253906e+00,-5.672958850860595703e+00,-7.460955619812011719e+00,-7.399745464324951172e+00,-7.899111747741699219e+00,-7.836390018463134766e+00,-8.094686508178710938e+00,nan,-7.675666332244873047e+00,-7.523968219757080078e+00,-7.437122344970703125e+00,-7.083345890045166016e+00,-7.839719295501708984e+00,-7.264470100402832031e+00,-7.540919780731201172e+00,-7.938605785369873047e+00,-6.858055591583251953e+00,-8.329751968383789062e+00,-3.156073093414306641e+00,-3.109739303588867188e+00,-3.098331928253173828e+00,-7.823338985443115234e+00,-6.740920066833496094e+00,-7.011855125427246094e+00,-8.792675971984863281e+00,-8.907649040222167969e+00,-7.908011436462402344e+00,-4.420700550079345703e+00,-5.361745357513427734e+00,-7.237123489379882812e+00,-4.524515628814697266e+00,-8.105911254882812500e+00,-3.403399705886840820e+00,-3.493501186370849609e+00,-3.573813676834106445e+00,-3.706886053085327148e+00,-2.477283477783203125e+00,-8.167127609252929688e+00,-7.133271217346191406e+00,-7.701228618621826172e+00,-8.880926132202148438e+00,-2.430945396423339844e+00,-8.154788017272949219e+00,-8.309268951416015625e+00,-8.821132659912109375e+00,-2.234029769897460938e+00,-8.215899467468261719e+00,-5.530349254608154297e+00,-9.063278198242187500e+00,-9.134894371032714844e+00,-4.042161941528320312e+00,-9.021144866943359375e+00,-7.116444110870361328e+00,-9.744987487792968750e+00,-9.826372146606445312e+00,-1.005413913726806641e+01,-2.925625801086425781e+00,-2.822529792785644531e+00,-9.720811843872070312e+00,-2.567487716674804688e+00,-1.002867412567138672e+01,-9.966306686401367188e+00,-1.020453262329101562e+01,nan,-9.653821945190429688e+00,-9.473178863525390625e+00,-9.882799148559570312e+00,-9.976470947265625000e+00,-1.006296157836914062e+01,-1.022004413604736328e+01,-1.009720516204833984e+01,-2.871247768402099609e+00,-1.034989738464355469e+01,-3.935751199722290039e+00,-4.285442352294921875e+00,-1.015514755249023438e+01,-4.648124694824218750e+00,-4.484381675720214844e+00,-2.768597126007080078e+00,-1.031340026855468750e+01,-5.464864730834960938e+00,-4.846313953399658203e+00,-4.906054496765136719e+00,-3.372385978698730469e+00,-2.599355220794677734e+00,-3.839891910552978516e+00,-3.696339607238769531e+00,-3.874781608581542969e+00,-6.062203407287597656e+00,-5.520731925964355469e+00,-5.293163299560546875e+00,-4.039726257324218750e+00,-4.170302391052246094e+00,-5.380521774291992188e+00,-3.442197799682617188e+00,-3.726700782775878906e+00,-9.577149391174316406e+00,-6.644462585449218750e+00,-7.015620708465576172e+00,-7.379274368286132812e+00,-3.303131580352783203e+00,-3.669820308685302734e+00,-3.748728513717651367e+00,-3.692429542541503906e+00,-3.744544029235839844e+00,-3.731257200241088867e+00,-9.539037704467773438e+00,-9.399537086486816406e+00,-9.213802337646484375e+00,nan,-9.160608291625976562e+00,-8.419306755065917969e+00,-7.127919197082519531e+00,-7.853256225585937500e+00,-7.724471092224121094e+00,-7.842872619628906250e+00,-7.868415355682373047e+00,-7.647482872009277344e+00,-6.990600585937500000e+00,-7.012445449829101562e+00,-7.474655628204345703e+00,-7.514776229858398438e+00,-5.831593513488769531e+00,-6.161452770233154297e+00,-7.305639743804931641e+00,-6.054234981536865234e+00,-6.924340248107910156e+00,-6.061672210693359375e+00,-7.124712944030761719e+00,-6.620876312255859375e+00,-7.958676815032958984e+00,-7.537849903106689453e+00,-8.948019981384277344e+00,-9.129225730895996094e+00,-8.894783020019531250e+00,-8.762852668762207031e+00,-8.734780311584472656e+00,-8.765473365783691406e+00,-8.572749137878417969e+00,-8.204209327697753906e+00,-8.195135116577148438e+00,-8.121718406677246094e+00,-8.661719322204589844e+00,-8.768354415893554688e+00,-8.354477882385253906e+00,-8.286070823669433594e+00,-8.563058853149414062e+00,-8.928730964660644531e+00,-8.863287925720214844e+00,-8.886932373046875000e+00,-8.597694396972656250e+00,-9.129063606262207031e+00,-8.505094528198242188e+00,-8.587094306945800781e+00,-8.712975502014160156e+00,-8.657375335693359375e+00,-8.581946372985839844e+00,-8.597104072570800781e+00,-8.424877166748046875e+00,-8.364952087402343750e+00,-8.284494400024414062e+00,-8.450642585754394531e+00,-8.496855735778808594e+00,-8.742757797241210938e+00,-8.318210601806640625e+00
-7.901868820190429688e+00,-5.685664176940917969e+00,-7.418392181396484375e+00,-7.402857303619384766e+00,nan,nan,nan,-7.824665069580078125e+00,-7.594909667968750000e+00,-7.535194396972656250e+00,-8.085564613342285156e+00,-8.469115257263183594e+00,-7.317654132843017578e+00,-7.499709129333496094e+00,-7.256235599517822266e+00,nan,-3.090302467346191406e+00,-3.105831623077392578e+00,-3.133082389831542969e+00,nan,-7.536771297454833984e+00,-7.861132144927978516e+00,-6.696845054626464844e+00,-6.047055721282958984e+00,-6.685492992401123047e+00,-7.864454269409179688e+00,-6.654870033264160156e+00,-4.102128028869628906e+00,-5.383299827575683594e+00,-4.730806827545166016e+00,-7.793147563934326172e+00,-3.261312484741210938e+00,-7.662780284881591797e+00,-7.742421627044677734e+00,-7.167110919952392578e+00,-7.154956340789794922e+00,-6.556288242340087891e+00,-2.461714744567871094e+00,-7.141007423400878906e+00,-4.086293697357177734e+00,-2.493673801422119141e+00,-8.942109107971191406e+00,-7.510146617889404297e+00,-8.500713348388671875e+00,-9.098163604736328125e+00,-9.234788894653320312e+00,-5.627660274505615234e+00,-7.916439056396484375e+00,-7.557791233062744141e+00,-8.161611557006835938e+00,-9.380525588989257812e+00,-9.796453475952148438e+00,-9.636008262634277344e+00,-9.686327934265136719e+00,-1.015206527709960938e+01,-1.024027824401855469e+01,-2.873635292053222656e+00,-2.878257751464843750e+00,-6.323266029357910156e+00,-2.527503490447998047e+00,-2.433198451995849609e+00,-9.869709014892578125e+00,-1.053214168548583984e+01,-1.043346977233886719e+01,-9.470732688903808594e+00,-9.524554252624511719e+00,-9.720696449279785156e+00,-1.005386543273925781e+01,-4.098152637481689453e+00,-1.011776638031005859e+01,-1.017051792144775391e+01,-3.129459857940673828e+00,-3.078857898712158203e+00,-3.029398918151855469e+00,-2.949267864227294922e+00,-4.538629531860351562e+00,-3.288028240203857422e+00,-4.136605262756347656e+00,-3.343005180358886719e+00,-3.236087322235107422e+00,-5.552615165710449219e+00,-4.873870849609375000e+00,-2.549894809722900391e+00,-5.739713191986083984e+00,-3.184662818908691406e+00,-5.259549140930175781e+00,-6.092393875122070312e+00,-3.748421192169189453e+00,-3.987254381179809570e+00,-4.868910789489746094e+00,-6.012797355651855469e+00,-3.883669137954711914e+00,-5.655365943908691406e+00,-5.666448593139648438e+00,-4.402703285217285156e+00,-5.486557483673095703e+00,-3.588469743728637695e+00,-2.607616424560546875e+00,-7.042679786682128906e+00,-6.960058689117431641e+00,-3.799887895584106445e+00,-3.728068351745605469e+00,-3.778894901275634766e+00,-3.749661922454833984e+00,-3.765117168426513672e+00,-3.758227109909057617e+00,-9.062803268432617188e+00,-9.331072807312011719e+00,-8.672891616821289062e+00,-9.116006851196289062e+00,nan,-8.427127838134765625e+00,-9.122617721557617188e+00,-7.935861110687255859e+00,-8.216875076293945312e+00,-7.057534217834472656e+00,-8.314265251159667969e+00,-7.343194484710693359e+00,-7.660068035125732422e+00,-7.463024616241455078e+00,-5.902857303619384766e+00,-7.202357769012451172e+00,-6.758046150207519531e+00,-6.846120357513427734e+00,-6.678174495697021484e+00,-7.627177238464355469e+00,-6.926769256591796875e+00,-8.177618980407714844e+00,-7.825725555419921875e+00,-7.491964340209960938e+00,-7.783874988555908203e+00,-6.521208286285400391e+00,-9.130873680114746094e+00,-8.887581825256347656e+00,-9.349081993103027344e+00,-8.987848281860351562e+00,-9.134546279907226562e+00,-8.729590415954589844e+00,-8.784265518188476562e+00,-8.485383033752441406e+00,-8.204695701599121094e+00,-8.265533447265625000e+00,-8.646475791931152344e+00,-8.642370223999023438e+00,-8.759418487548828125e+00,-8.731923103332519531e+00,-8.902772903442382812e+00,-8.858673095703125000e+00,-8.839151382446289062e+00,-8.638826370239257812e+00,-8.477432250976562500e+00,-8.501229286193847656e+00,-8.522184371948242188e+00,-8.443526268005371094e+00,-8.564088821411132812e+00,-8.373958587646484375e+00,-8.363170623779296875e+00,-8.390441894531250000e+00,-8.395171165466308594e+00,-8.366809844970703125e+00,-8.492204666137695312e+00,-8.452765464782714844e+00,-8.631728172302246094e+00,-8.604006767272949219e+00,-8.682010650634765625e+00
-8.091437339782714844e+00,-7.434514522552490234e+00,nan,-3.038496971130371094e+00,-2.947816371917724609e+00,nan,-7.973444938659667969e+00,-7.900670051574707031e+00,-7.800261020660400391e+00,-7.531746387481689453e+00,-8.664934158325195312e+00,-7.988933086395263672e+00,-8.670310974121093750e+00,-2.316666126251220703e+00,-3.124521732330322266e+00,-7.948204517364501953e+00,-7.941271781921386719e+00,-3.123884677886962891e+00,-3.118764877319335938e+00,-7.374611377716064453e+00,-7.365364074707031250e+00,-2.988395214080810547e+00,-7.316890239715576172e+00,-7.376566886901855469e+00,-6.052139282226562500e+00,-6.049111843109130859e+00,-6.037237167358398438e+00,-3.496565818786621094e+00,-5.393380641937255859e+00,-7.854777336120605469e+00,-6.183133125305175781e+00,-6.260612010955810547e+00,nan,-7.801944732666015625e+00,-7.996439933776855469e+00,-7.150148391723632812e+00,-6.579032421112060547e+00,-8.064400672912597656e+00,-6.538165092468261719e+00,-2.573889732360839844e+00,-2.595900058746337891e+00,-9.095857620239257812e+00,-4.446143150329589844e+00,-9.273834228515625000e+00,-9.348082542419433594e+00,-5.373829364776611328e+00,-8.178724288940429688e+00,-5.562064647674560547e+00,-7.574852466583251953e+00,-3.772313833236694336e+00,-6.788953781127929688e+00,-6.101932525634765625e+00,-9.791641235351562500e+00,-9.993042945861816406e+00,-1.025226402282714844e+01,-3.483111143112182617e+00,-6.086560249328613281e+00,-2.802913665771484375e+00,-2.628483772277832031e+00,-6.325842380523681641e+00,-2.337779521942138672e+00,-9.891295433044433594e+00,-4.230359554290771484e+00,-9.841402053833007812e+00,-9.685204505920410156e+00,-4.180755138397216797e+00,-9.834225654602050781e+00,-1.012312316894531250e+01,-1.053577804565429688e+01,-2.925600051879882812e+00,-1.036344337463378906e+01,-1.032686805725097656e+01,-3.019955635070800781e+00,-4.253667831420898438e+00,-4.460245132446289062e+00,-2.893221855163574219e+00,-2.788599967956542969e+00,-3.849226713180541992e+00,-3.906023979187011719e+00,-3.185057163238525391e+00,-2.685559272766113281e+00,-2.638904094696044922e+00,-5.781586170196533203e+00,-5.790372371673583984e+00,-3.084563732147216797e+00,-3.938069820404052734e+00,-2.688799858093261719e+00,-2.456483840942382812e+00,-2.173610687255859375e+00,-6.215436458587646484e+00,-4.283504486083984375e+00,-3.905419588088989258e+00,-3.406279087066650391e+00,-6.249591827392578125e+00,-2.777963161468505859e+00,-6.235403060913085938e+00,-6.263977050781250000e+00,-2.625821113586425781e+00,-2.722189426422119141e+00,-9.373207092285156250e+00,-9.547698974609375000e+00,-3.840784072875976562e+00,-3.802676916122436523e+00,-3.793089389801025391e+00,-3.803422927856445312e+00,-3.796105146408081055e+00,-9.250095367431640625e+00,-9.106618881225585938e+00,-8.661351203918457031e+00,-7.985895633697509766e+00,-8.626663208007812500e+00,-8.784605026245117188e+00,-8.426282882690429688e+00,-8.567114830017089844e+00,-7.987642288208007812e+00,-8.527231216430664062e+00,-7.309003829956054688e+00,-7.265319347381591797e+00,-5.693640232086181641e+00,-7.281139850616455078e+00,-7.109263896942138672e+00,-6.811297416687011719e+00,-6.914955615997314453e+00,-6.127776622772216797e+00,-5.233621597290039062e+00,-5.535326957702636719e+00,-6.001151084899902344e+00,-7.818888187408447266e+00,-7.021348476409912109e+00,-7.741599082946777344e+00,-8.380762100219726562e+00,-8.415287017822265625e+00,-9.129924774169921875e+00,-8.524231910705566406e+00,-8.527563095092773438e+00,-8.361742973327636719e+00,-8.757458686828613281e+00,-8.299332618713378906e+00,-8.787266731262207031e+00,-8.726408004760742188e+00,-8.443436622619628906e+00,-8.338088989257812500e+00,-8.186780929565429688e+00,-8.754685401916503906e+00,-8.744852066040039062e+00,-8.821436882019042969e+00,-8.635787963867187500e+00,-8.776144027709960938e+00,-8.689749717712402344e+00,-8.580865859985351562e+00,-8.548150062561035156e+00,-8.948934555053710938e+00,-8.920238494873046875e+00,-8.695985794067382812e+00,-8.378713607788085938e+00,-8.394699096679687500e+00,-8.352891921997070312e+00,-8.306737899780273438e+00,-8.384339332580566406e+00,-8.672826766967773438e+00,-8.452158927917480469e+00,-8.893316268920898438e+00,-8.295730590820312500e+00,-8.694926261901855469e+00,-8.340612411499023438e+00
nan,nan,nan,-2.950544834136962891e+00,-2.940472602844238281e+00,-2.980916976928710938e+00,-8.792051315307617188e+00,-8.707537651062011719e+00,-8.709665298461914062e+00,-8.693611145019531250e+00,-2.536798954010009766e+00,-8.737775802612304688e+00,-2.406703472137451172e+00,-2.228765010833740234e+00,-7.956897258758544922e+00,-7.534029006958007812e+00,-3.062660694122314453e+00,-8.680630683898925781e+00,-7.413360595703125000e+00,-7.408407688140869141e+00,-8.801613807678222656e+00,-2.985026359558105469e+00,-3.584023714065551758e+00,-8.830556869506835938e+00,-6.638818264007568359e+00,-4.814277172088623047e+00,-4.804572105407714844e+00,-4.792976856231689453e+00,-7.329538822174072266e+00,-7.867605686187744141e+00,-7.842922687530517578e+00,-8.079166412353515625e+00,-7.676697731018066406e+00,-7.801775455474853516e+00,-7.989912986755371094e+00,-6.692859649658203125e+00,-8.432479858398437500e+00,-6.873835086822509766e+00,-6.541518211364746094e+00,-2.591742038726806641e+00,-9.212861061096191406e+00,-9.145448684692382812e+00,-9.375606536865234375e+00,-9.370971679687500000e+00,-9.622684478759765625e+00,-8.188712120056152344e+00,-9.324362754821777344e+00,-9.250445365905761719e+00,-7.783334732055664062e+00,-3.951912879943847656e+00,-6.986225605010986328e+00,-6.979912281036376953e+00,-8.678821563720703125e+00,-5.826950073242187500e+00,-2.966846466064453125e+00,-2.970135688781738281e+00,-2.951607704162597656e+00,-6.077317237854003906e+00,-2.640803813934326172e+00,-6.306654930114746094e+00,-2.351501941680908203e+00,nan,-4.361423492431640625e+00,-4.354530334472656250e+00,-4.268542289733886719e+00,-1.067539024353027344e+01,-4.100576877593994141e+00,-4.073149204254150391e+00,-1.059411334991455078e+01,-1.057982635498046875e+01,-3.067009449005126953e+00,-3.900257110595703125e+00,-3.158949375152587891e+00,-2.915777206420898438e+00,-2.970645904541015625e+00,nan,-1.025536155700683594e+01,-4.219834327697753906e+00,-3.026134490966796875e+00,-2.505131244659423828e+00,-7.267212867736816406e+00,-2.639194965362548828e+00,-2.980077743530273438e+00,-5.790424346923828125e+00,-3.041872024536132812e+00,-3.127049446105957031e+00,-2.581520557403564453e+00,-2.452262878417968750e+00,-2.457643032073974609e+00,-6.125397682189941406e+00,-2.105029106140136719e+00,-2.848232269287109375e+00,-2.805387020111083984e+00,-2.826972961425781250e+00,-6.342200756072998047e+00,-6.241881370544433594e+00,-2.798528671264648438e+00,-3.338887214660644531e+00,-9.583571434020996094e+00,-6.269297599792480469e+00,-3.839591741561889648e+00,-3.856572151184082031e+00,-8.980963706970214844e+00,-9.031706809997558594e+00,-3.752884149551391602e+00,-3.814297914505004883e+00,-9.071318626403808594e+00,-9.158706665039062500e+00,-9.395339965820312500e+00,nan,-7.224177837371826172e+00,-8.275765419006347656e+00,-8.332586288452148438e+00,-7.948641300201416016e+00,-8.400283813476562500e+00,-7.182508468627929688e+00,-8.152258872985839844e+00,-8.226274490356445312e+00,-7.526778221130371094e+00,-7.221931457519531250e+00,-6.658166885375976562e+00,-6.582575321197509766e+00,-6.710000991821289062e+00,-6.277385234832763672e+00,-5.384073257446289062e+00,-6.911663532257080078e+00,-6.862422943115234375e+00,-6.351712226867675781e+00,-7.605325222015380859e+00,-7.755213737487792969e+00,-8.674221038818359375e+00,-8.677028656005859375e+00,-9.138315200805664062e+00,-8.055665969848632812e+00,-8.337840080261230469e+00,-8.803815841674804688e+00,-8.861372947692871094e+00,-8.201299667358398438e+00,-8.465603828430175781e+00,-8.702280998229980469e+00,-8.626512527465820312e+00,-8.066871643066406250e+00,-8.543624877929687500e+00,-8.246933937072753906e+00,-9.026366233825683594e+00,-8.844319343566894531e+00,-8.769288063049316406e+00,-8.660516738891601562e+00,-8.736845016479492188e+00,-8.567111015319824219e+00,-8.388107299804687500e+00,-8.728050231933593750e+00,-8.899223327636718750e+00,-8.847995758056640625e+00,-8.511919021606445312e+00,-8.295413017272949219e+00,-8.484910011291503906e+00,-8.763879776000976562e+00,-8.713956832885742188e+00,-8.422171592712402344e+00,-8.227548599243164062e+00,-8.320260047912597656e+00,-8.323106765747070312e+00,-8.411962509155273438e+00,-8.300688743591308594e+00
-8.924323081970214844e+00,nan,nan,nan,nan,-8.929562568664550781e+00,-2.934406757354736328e+00,-8.828275680541992188e+00,-8.774265289306640625e+00,-8.738103866577148438e+00,-8.895409584045410156e+00,-7.927057266235351562e+00,-8.818068504333496094e+00,-8.944360733032226562e+00,-7.058551311492919922e+00,-7.988704681396484375e+00,-8.063251495361328125e+00,-8.894624710083007812e+00,-3.079440593719482422e+00,-9.051957130432128906e+00,-2.908466815948486328e+00,-2.916849613189697266e+00,-3.661868572235107422e+00,-4.019677162170410156e+00,-4.202323436737060547e+00,-4.197824478149414062e+00,-4.190634727478027344e+00,-3.551585674285888672e+00,-9.122893333435058594e+00,-7.773335933685302734e+00,-7.767899990081787109e+00,-7.857005596160888672e+00,-7.821482181549072266e+00,-7.852899551391601562e+00,-7.768731117248535156e+00,-7.095094203948974609e+00,-7.174069881439208984e+00,-6.872754573822021484e+00,-7.565957069396972656e+00,-7.087919712066650391e+00,-7.702895641326904297e+00,-7.905540466308593750e+00,-2.471240520477294922e+00,-8.436149597167968750e+00,-9.182974815368652344e+00,-2.557859420776367188e+00,-9.324796676635742188e+00,-5.217494487762451172e+00,-3.503019809722900391e+00,-3.925484418869018555e+00,-4.223766326904296875e+00,-8.466992378234863281e+00,-2.943588733673095703e+00,-3.008750438690185547e+00,-2.987218379974365234e+00,-2.993859767913818359e+00,-2.932855606079101562e+00,-2.671226024627685547e+00,-6.351598739624023438e+00,-6.353451728820800781e+00,nan,nan,-1.029903984069824219e+01,-1.068529701232910156e+01,-1.089234256744384766e+01,-1.085338687896728516e+01,-1.091636276245117188e+01,-4.337946414947509766e+00,-4.103574752807617188e+00,-1.078019046783447266e+01,-1.056178569793701172e+01,-4.015772819519042969e+00,-4.043581008911132812e+00,-2.926786422729492188e+00,-2.997949123382568359e+00,-1.044050598144531250e+01,-3.793909549713134766e+00,-1.062403678894042969e+01,-3.105316638946533203e+00,-2.406589984893798828e+00,-2.421974658966064453e+00,-5.978055000305175781e+00,-2.609886169433593750e+00,-5.774052143096923828e+00,-5.075947284698486328e+00,-5.299679756164550781e+00,-2.555370330810546875e+00,-6.119568347930908203e+00,-2.354082107543945312e+00,-6.128221511840820312e+00,-6.098464965820312500e+00,-3.555501461029052734e+00,-3.758436679840087891e+00,-2.515738487243652344e+00,-3.565976858139038086e+00,-2.729831695556640625e+00,-3.945295095443725586e+00,-3.382771968841552734e+00,-9.547523498535156250e+00,-3.735850334167480469e+00,-3.598257303237915039e+00,-8.989876747131347656e+00,-8.941525459289550781e+00,-8.953889846801757812e+00,-4.009667396545410156e+00,-3.869933366775512695e+00,-8.951744079589843750e+00,-9.358703613281250000e+00,nan,-9.204377174377441406e+00,-5.856911659240722656e+00,-8.201934814453125000e+00,-7.915272712707519531e+00,-7.705378055572509766e+00,-6.085127353668212891e+00,-6.914475440979003906e+00,-8.028678894042968750e+00,-7.354967594146728516e+00,-7.489903450012207031e+00,-7.756771564483642578e+00,-7.076966762542724609e+00,-6.842705249786376953e+00,-7.334641933441162109e+00,-6.931991100311279297e+00,-5.614179611206054688e+00,-8.036990165710449219e+00,-5.886703491210937500e+00,-8.184030532836914062e+00,-7.759091377258300781e+00,-7.877253532409667969e+00,-7.901401519775390625e+00,-7.764363288879394531e+00,-8.655364036560058594e+00,-8.357709884643554688e+00,-7.035501480102539062e+00,-8.463967323303222656e+00,-8.772624969482421875e+00,-8.621602058410644531e+00,-8.251667022705078125e+00,-8.728951454162597656e+00,-8.702538490295410156e+00,-7.496829986572265625e+00,-8.891419410705566406e+00,-8.935397148132324219e+00,-8.956583023071289062e+00,-8.844963073730468750e+00,-8.735743522644042969e+00,-8.373487472534179688e+00,-9.064261436462402344e+00,-9.037946701049804688e+00,-8.864109039306640625e+00,-8.843872070312500000e+00,-8.847628593444824219e+00,-8.892229080200195312e+00,-8.806889533996582031e+00,-8.769778251647949219e+00,-8.431440353393554688e+00,-8.903677940368652344e+00,-8.716537475585937500e+00,-8.561197280883789062e+00,-8.407952308654785156e+00,-8.340931892395019531e+00,-8.379081726074218750e+00,-8.302747726440429688e+00,-8.324954986572265625e+00
nan,-8.900340080261230469e+00,-2.929573535919189453e+00,-2.849528312683105469e+00,-8.823674201965332031e+00,-8.899494171142578125e+00,-8.840084075927734375e+00,-2.454438209533691406e+00,-8.936016082763671875e+00,-2.855604648590087891e+00,-8.893337249755859375e+00,-8.065341949462890625e+00,-8.998686790466308594e+00,nan,-7.077382087707519531e+00,-7.477179527282714844e+00,-9.077655792236328125e+00,-9.021312713623046875e+00,-9.169918060302734375e+00,-9.172613143920898438e+00,-9.123295783996582031e+00,-9.270006179809570312e+00,-9.000025749206542969e+00,-2.420342922210693359e+00,-4.218195915222167969e+00,-3.575652360916137695e+00,-2.290611743927001953e+00,-2.306560993194580078e+00,-9.064938545227050781e+00,-7.271904945373535156e+00,-7.258327960968017578e+00,-8.135375976562500000e+00,-7.813692569732666016e+00,-7.248292922973632812e+00,-7.507679939270019531e+00,-7.071859359741210938e+00,-7.180975914001464844e+00,-7.753520011901855469e+00,-8.263120651245117188e+00,-8.295414924621582031e+00,-7.851405620574951172e+00,-8.296370506286621094e+00,-9.047146797180175781e+00,-8.721785545349121094e+00,-8.432415962219238281e+00,-7.480314254760742188e+00,-3.008381843566894531e+00,-9.667191505432128906e+00,-3.404046297073364258e+00,-3.900718688964843750e+00,-4.514037132263183594e+00,-3.017864227294921875e+00,-3.037306308746337891e+00,-6.419452190399169922e+00,-5.859426498413085938e+00,-9.672237396240234375e+00,-9.541864395141601562e+00,-2.658924579620361328e+00,-6.324716091156005859e+00,-6.693768024444580078e+00,-1.058528709411621094e+01,-1.075724029541015625e+01,-1.092206382751464844e+01,-1.089412117004394531e+01,nan,-4.232790946960449219e+00,-4.200157165527343750e+00,-4.148104667663574219e+00,-3.909967899322509766e+00,-1.070496177673339844e+01,-3.875620126724243164e+00,-3.917507886886596680e+00,-3.836534500122070312e+00,-3.105718135833740234e+00,-3.027803421020507812e+00,-1.048393440246582031e+01,-3.787844657897949219e+00,-2.777829647064208984e+00,-3.982406139373779297e+00,-3.873361825942993164e+00,-2.418515205383300781e+00,-3.939547777175903320e+00,-6.594533920288085938e+00,-3.098175048828125000e+00,-2.745974540710449219e+00,-3.324793338775634766e+00,-3.306282520294189453e+00,-2.379954814910888672e+00,-2.375776767730712891e+00,-4.541284084320068359e+00,-3.478090524673461914e+00,-3.457167387008666992e+00,-4.005700111389160156e+00,-5.254537582397460938e+00,-3.887683868408203125e+00,-5.722384452819824219e+00,-5.877468109130859375e+00,-3.400666236877441406e+00,-6.576633930206298828e+00,-9.059401512145996094e+00,-8.998182296752929688e+00,-8.967761993408203125e+00,-9.135776519775390625e+00,-3.868929386138916016e+00,-3.996201515197753906e+00,-8.796940803527832031e+00,-8.664310455322265625e+00,-8.979916572570800781e+00,-6.947843074798583984e+00,-8.844914436340332031e+00,-8.288064956665039062e+00,-7.772703170776367188e+00,-8.111854553222656250e+00,-7.557311058044433594e+00,-8.233578681945800781e+00,-8.098114013671875000e+00,-6.969208240509033203e+00,-7.055733203887939453e+00,-7.535083770751953125e+00,-7.189105510711669922e+00,-6.906675338745117188e+00,-7.624777793884277344e+00,-7.764123439788818359e+00,-5.717480659484863281e+00,-6.712843418121337891e+00,-5.594882488250732422e+00,-6.325335979461669922e+00,-7.676862716674804688e+00,-8.030434608459472656e+00,-7.672037601470947266e+00,-7.704134464263916016e+00,-7.794583320617675781e+00,-8.656173706054687500e+00,-8.268045425415039062e+00,-8.934782028198242188e+00,-8.729054450988769531e+00,-8.364954948425292969e+00,-8.573326110839843750e+00,-8.453299522399902344e+00,-8.726140022277832031e+00,-8.704077720642089844e+00,nan,-8.872386932373046875e+00,-9.040722846984863281e+00,-8.765534400939941406e+00,-8.829662322998046875e+00,-9.120874404907226562e+00,-8.704517364501953125e+00,-8.735481262207031250e+00,-8.822874069213867188e+00,-8.832365036010742188e+00,-8.836859703063964844e+00,-8.722998619079589844e+00,-8.851634025573730469e+00,-8.326880455017089844e+00,-8.415144920349121094e+00,-8.564708709716796875e+00,-8.698772430419921875e+00,-8.768738746643066406e+00,-8.452872276306152344e+00,-8.415925025939941406e+00,-8.427538871765136719e+00,-8.386284828186035156e+00,-8.546787261962890625e+00,-8.319332122802734375e+00
nan,-3.561219930648803711e+00,-2.868591785430908203e+00,-2.875616073608398438e+00,-3.199565410614013672e+00,-3.014313697814941406e+00,-2.460293292999267578e+00,-2.488523960113525391e+00,-2.743985176086425781e+00,-2.868272781372070312e+00,-2.891027927398681641e+00,-9.143930435180664062e+00,-2.916678428649902344e+00,-9.133728981018066406e+00,-9.088333129882812500e+00,-9.084571838378906250e+00,-9.085172653198242188e+00,-9.153085708618164062e+00,-9.322372436523437500e+00,-9.320563316345214844e+00,-9.290863990783691406e+00,-8.236625671386718750e+00,-3.753232002258300781e+00,-3.884991168975830078e+00,-4.261189460754394531e+00,-4.206783771514892578e+00,-2.578573703765869141e+00,-5.493657588958740234e+00,-7.319083690643310547e+00,-7.282015323638916016e+00,-7.430802822113037109e+00,-8.123400688171386719e+00,-8.044728279113769531e+00,-7.809143066406250000e+00,-7.798560619354248047e+00,-7.194379806518554688e+00,-7.187817573547363281e+00,-7.695471286773681641e+00,-7.946093082427978516e+00,-7.030508995056152344e+00,-8.685371398925781250e+00,-8.616348266601562500e+00,-8.883618354797363281e+00,-8.571177482604980469e+00,-8.594489097595214844e+00,-3.067571640014648438e+00,-3.086942672729492188e+00,-4.638450145721435547e+00,-4.795937061309814453e+00,-3.462396383285522461e+00,-8.280392646789550781e+00,-4.755493164062500000e+00,-2.504530906677246094e+00,-1.058370399475097656e+01,-6.730737686157226562e+00,-6.739033699035644531e+00,-7.803350925445556641e+00,-2.675413131713867188e+00,-6.381954193115234375e+00,-6.374106884002685547e+00,-8.006749153137207031e+00,-1.081359100341796875e+01,-8.118387222290039062e+00,-8.135500907897949219e+00,-9.011271476745605469e+00,-4.293432235717773438e+00,-4.163155555725097656e+00,-3.981446027755737305e+00,-3.926395416259765625e+00,-1.082518577575683594e+01,-3.171604156494140625e+00,-3.244066715240478516e+00,-3.741951465606689453e+00,-3.246046543121337891e+00,-3.061715126037597656e+00,-3.155535697937011719e+00,-1.071321964263916016e+01,-4.189191818237304688e+00,-3.963510513305664062e+00,-3.942039966583251953e+00,-7.204997539520263672e+00,-2.258085727691650391e+00,-5.550784587860107422e+00,-2.746383190155029297e+00,-3.217612266540527344e+00,-4.076968669891357422e+00,-2.840160846710205078e+00,-4.469676494598388672e+00,-2.405771732330322266e+00,-3.541703939437866211e+00,-2.980858325958251953e+00,-2.987423896789550781e+00,-6.334690093994140625e+00,-2.381346702575683594e+00,-4.003136634826660156e+00,-3.967046260833740234e+00,-4.114571094512939453e+00,-3.517471313476562500e+00,-9.572093963623046875e+00,-5.867546558380126953e+00,-9.050289154052734375e+00,-9.133362770080566406e+00,-9.199907302856445312e+00,-3.936830043792724609e+00,-8.522124290466308594e+00,-7.425177574157714844e+00,-8.835541725158691406e+00,-9.087425231933593750e+00,-8.459109306335449219e+00,-7.471809864044189453e+00,-9.040502548217773438e+00,-7.533538818359375000e+00,-7.157873630523681641e+00,-8.573877334594726562e+00,-4.217670440673828125e+00,-6.808067798614501953e+00,-7.197125911712646484e+00,-7.714097023010253906e+00,-7.698706626892089844e+00,-7.007941722869873047e+00,-6.759866237640380859e+00,-7.743347167968750000e+00,-7.888917922973632812e+00,-7.232778072357177734e+00,-8.655042648315429688e+00,-7.917029857635498047e+00,nan,-8.076336860656738281e+00,-8.086277961730957031e+00,-7.916319370269775391e+00,-8.100708961486816406e+00,-8.642359733581542969e+00,-8.640765190124511719e+00,-8.625842094421386719e+00,-8.753606796264648438e+00,-8.680196762084960938e+00,-8.527330398559570312e+00,-8.483545303344726562e+00,-8.386079788208007812e+00,-8.532270431518554688e+00,-8.671792984008789062e+00,-8.996596336364746094e+00,-9.148055076599121094e+00,-8.912055969238281250e+00,-8.578040122985839844e+00,-8.558648109436035156e+00,-8.658743858337402344e+00,-8.512231826782226562e+00,-8.799134254455566406e+00,-8.845094680786132812e+00,-8.789789199829101562e+00,-8.781321525573730469e+00,-8.914861679077148438e+00,-8.471400260925292969e+00,-8.492083549499511719e+00,-8.484914779663085938e+00,-8.347936630249023438e+00,-8.510723114013671875e+00,-8.403872489929199219e+00,-8.450957298278808594e+00,-8.410247802734375000e+00,-8.413453102111816406e+00,-8.432692527770996094e+00,-8.376051902770996094e+00,-8.347545623779296875e+00
-4.239759922027587891e+00,-3.671387195587158203e+00,-9.088400840759277344e+00,-3.567273378372192383e+00,-3.574589967727661133e+00,-3.593788862228393555e+00,-3.289673805236816406e+00,-8.012277603149414062e+00,-3.210497856140136719e+00,-3.248190879821777344e+00,-3.211300373077392578e+00,-3.185495376586914062e+00,-9.329355239868164062e+00,-9.328748703002929688e+00,-9.311681747436523438e+00,-9.278411865234375000e+00,-8.703888893127441406e+00,-9.265951156616210938e+00,-9.334351539611816406e+00,-9.331038475036621094e+00,-7.875613212585449219e+00,-9.114028930664062500e+00,-3.814691066741943359e+00,-4.091482639312744141e+00,-4.210011482238769531e+00,-4.294098854064941406e+00,-3.492938518524169922e+00,-5.503464221954345703e+00,-4.910128116607666016e+00,-4.296582221984863281e+00,-6.737663745880126953e+00,-9.894212722778320312e+00,-9.089567184448242188e+00,-9.420403480529785156e+00,-7.795146465301513672e+00,-7.204668045043945312e+00,-7.199310302734375000e+00,-7.627399921417236328e+00,-7.736724376678466797e+00,-7.582562923431396484e+00,-8.823046684265136719e+00,-7.906492233276367188e+00,-8.664406776428222656e+00,-7.664772510528564453e+00,-7.615435600280761719e+00,-3.114745616912841797e+00,-3.145311355590820312e+00,-3.374394655227661133e+00,-1.028378772735595703e+01,-3.468903779983520508e+00,-4.564563751220703125e+00,-4.386583328247070312e+00,-4.823483943939208984e+00,-5.905244827270507812e+00,-6.964169025421142578e+00,-6.931262016296386719e+00,-5.721608638763427734e+00,-2.605283737182617188e+00,-6.404524326324462891e+00,-7.958757400512695312e+00,-8.063374519348144531e+00,-8.189163208007812500e+00,-8.045222282409667969e+00,-8.366136550903320312e+00,-7.549550533294677734e+00,-4.181430816650390625e+00,-4.079228401184082031e+00,-3.714889287948608398e+00,-3.676421403884887695e+00,-3.679973125457763672e+00,-4.575972557067871094e+00,-4.581945419311523438e+00,-3.683860301971435547e+00,-3.231121063232421875e+00,-3.875283241271972656e+00,-4.638619899749755859e+00,-3.989883422851562500e+00,-3.984787702560424805e+00,-3.976676940917968750e+00,-4.009621620178222656e+00,-2.345477104187011719e+00,-3.661502838134765625e+00,-5.562034606933593750e+00,-2.876193046569824219e+00,-5.644484519958496094e+00,-4.106560707092285156e+00,-4.074839115142822266e+00,-2.817843914031982422e+00,-3.103582859039306641e+00,-4.097426414489746094e+00,-3.004187107086181641e+00,-4.872550010681152344e+00,-6.346765041351318359e+00,-5.233561515808105469e+00,-4.057108879089355469e+00,-3.710638761520385742e+00,-6.088671207427978516e+00,-9.237668037414550781e+00,-9.578853607177734375e+00,-9.510396957397460938e+00,-9.160604476928710938e+00,-9.188321113586425781e+00,-8.703038215637207031e+00,-8.831459045410156250e+00,-8.771864891052246094e+00,-8.904316902160644531e+00,-9.433579444885253906e+00,-8.778324127197265625e+00,-7.999058723449707031e+00,-8.236789703369140625e+00,-6.859164237976074219e+00,-8.231066703796386719e+00,-8.313029289245605469e+00,-8.253425598144531250e+00,-7.843525409698486328e+00,-7.618072986602783203e+00,-7.436565876007080078e+00,-8.108014106750488281e+00,-8.169366836547851562e+00,-7.921265602111816406e+00,-6.906305313110351562e+00,-7.711069583892822266e+00,-7.766850471496582031e+00,-7.637069702148437500e+00,-7.042851448059082031e+00,-7.951527118682861328e+00,-7.916765689849853516e+00,-7.962330341339111328e+00,-8.081777572631835938e+00,-8.078233718872070312e+00,-8.082365989685058594e+00,-8.093468666076660156e+00,-8.098003387451171875e+00,-8.541870117187500000e+00,-8.673587799072265625e+00,-8.665478706359863281e+00,-8.518616676330566406e+00,-8.463317871093750000e+00,-8.938460350036621094e+00,nan,-8.624077796936035156e+00,-8.889219284057617188e+00,-9.097340583801269531e+00,-8.975355148315429688e+00,-8.522717475891113281e+00,-8.940993309020996094e+00,-8.824601173400878906e+00,-8.582870483398437500e+00,-8.514492988586425781e+00,-8.498801231384277344e+00,-8.667340278625488281e+00,-8.783654212951660156e+00,-8.688563346862792969e+00,-8.426805496215820312e+00,-8.847946166992187500e+00,-8.565053939819335938e+00,-8.547590255737304688e+00,-8.458705902099609375e+00,-8.493828773498535156e+00,-8.439451217651367188e+00,-8.446185111999511719e+00,-8.485635757446289062e+00,-8.439473152160644531e+00,-8.354169845581054688e+00,-8.415383338928222656e+00
-4.255537033081054688e+00,-4.152378082275390625e+00,-3.469810247421264648e+00,-3.615741252899169922e+00,-3.568331003189086914e+00,-3.609238147735595703e+00,-3.685763359069824219e+00,-8.823589324951171875e+00,-8.591371536254882812e+00,-9.209408760070800781e+00,-3.641080856323242188e+00,-8.166246414184570312e+00,-9.423070907592773438e+00,-9.455266952514648438e+00,-9.442173957824707031e+00,-9.392477035522460938e+00,-9.285416603088378906e+00,-9.328199386596679688e+00,-7.432170867919921875e+00,-3.035884857177734375e+00,-3.682397127151489258e+00,-3.755467653274536133e+00,-4.012056350708007812e+00,-4.323249816894531250e+00,-4.327865123748779297e+00,-4.329666614532470703e+00,-9.117295265197753906e+00,-4.934355258941650391e+00,-4.917872428894042969e+00,-9.009843826293945312e+00,-9.885018348693847656e+00,-7.271078586578369141e+00,-7.256136894226074219e+00,-7.276317596435546875e+00,-7.517185211181640625e+00,-7.211589813232421875e+00,-7.202476024627685547e+00,-9.057766914367675781e+00,-7.739974975585937500e+00,-7.664153099060058594e+00,-8.757418632507324219e+00,-9.034746170043945312e+00,-8.653150558471679688e+00,-7.474678516387939453e+00,-7.475471496582031250e+00,-7.609455585479736328e+00,-3.049940109252929688e+00,-3.198416709899902344e+00,-7.584986686706542969e+00,-3.507125616073608398e+00,-3.719672441482543945e+00,-3.735505819320678711e+00,-2.595928192138671875e+00,-6.982694625854492188e+00,-6.972589015960693359e+00,-5.904057502746582031e+00,-6.948268413543701172e+00,-2.615727901458740234e+00,-2.537810802459716797e+00,-2.343669891357421875e+00,-2.358073234558105469e+00,-8.798101425170898438e+00,-7.790141105651855469e+00,-8.930472373962402344e+00,-7.698546409606933594e+00,-4.072986602783203125e+00,-4.021844863891601562e+00,-3.707137346267700195e+00,-3.724043846130371094e+00,-3.668376207351684570e+00,-3.480258464813232422e+00,-4.541262626647949219e+00,-3.819497108459472656e+00,-3.682068586349487305e+00,-4.211357116699218750e+00,-3.942692518234252930e+00,-4.426313400268554688e+00,-3.977220296859741211e+00,-7.729774951934814453e+00,-3.870050191879272461e+00,-3.941890239715576172e+00,-7.331850528717041016e+00,-6.968227386474609375e+00,-2.911810874938964844e+00,-4.939570426940917969e+00,-4.073776721954345703e+00,-3.087548255920410156e+00,-3.217380523681640625e+00,-4.116944313049316406e+00,-3.450417280197143555e+00,-4.103610992431640625e+00,-5.132860183715820312e+00,-4.299813270568847656e+00,-4.084987640380859375e+00,-4.081422805786132812e+00,-6.106610298156738281e+00,-4.348002433776855469e+00,-9.218074798583984375e+00,-9.585977554321289062e+00,-9.061142921447753906e+00,-9.003793716430664062e+00,-9.166479110717773438e+00,-8.985240936279296875e+00,-8.901200294494628906e+00,-8.903002738952636719e+00,-8.981557846069335938e+00,-9.684664726257324219e+00,-7.245250225067138672e+00,-6.723723888397216797e+00,-8.132249832153320312e+00,-9.165451049804687500e+00,-9.166706085205078125e+00,-6.362197399139404297e+00,-7.949078559875488281e+00,-7.579469203948974609e+00,-6.882599830627441406e+00,-6.992543220520019531e+00,-8.071351051330566406e+00,-8.011863708496093750e+00,-8.343108177185058594e+00,-7.768200874328613281e+00,-7.287214279174804688e+00,-7.637383460998535156e+00,-7.716086387634277344e+00,-7.812345504760742188e+00,-7.114313602447509766e+00,-8.743915557861328125e+00,-7.961855888366699219e+00,-8.071439743041992188e+00,-8.074253082275390625e+00,-7.954688072204589844e+00,-8.095180511474609375e+00,-8.093317031860351562e+00,-8.646093368530273438e+00,-8.626255035400390625e+00,-8.108205795288085938e+00,-8.635375022888183594e+00,-8.274035453796386719e+00,-8.447106361389160156e+00,-8.593009948730468750e+00,-8.686273574829101562e+00,-9.075084686279296875e+00,-8.979202270507812500e+00,nan,-8.938488006591796875e+00,-8.437862396240234375e+00,-8.737230300903320312e+00,-8.667362213134765625e+00,-8.709361076354980469e+00,-8.787216186523437500e+00,-8.771718978881835938e+00,-8.703208923339843750e+00,-8.484826087951660156e+00,-8.569113731384277344e+00,-8.169765472412109375e+00,-8.458324432373046875e+00,-8.550139427185058594e+00,-8.526892662048339844e+00,-8.474708557128906250e+00,-8.520399093627929688e+00,-8.476919174194335938e+00,-8.509962081909179688e+00,-8.436433792114257812e+00,-8.554747581481933594e+00,-8.598402976989746094e+00
