-7.159095287322998047e+00,-7.854900836944580078e+00,-7.894297599792480469e+00,-7.828209400177001953e+00,-7.803628444671630859e+00,-7.831424713134765625e+00,-7.716777324676513672e+00,-7.698515415191650391e+00,-7.706295013427734375e+00,-7.578748703002929688e+00,-7.043595314025878906e+00,-7.519162178039550781e+00,-7.541076183319091797e+00,-7.565907001495361328e+00,-7.524542331695556641e+00,-7.505106925964355469e+00,-6.703329563140869141e+00,-7.526882648468017578e+00,-7.519288063049316406e+00,-6.539462566375732422e+00,-6.697456359863281250e+00,-7.448838233947753906e+00,-6.922710895538330078e+00,-6.657617568969726562e+00,-6.834519386291503906e+00,-6.814839363098144531e+00,-6.935810089111328125e+00,-6.637996673583984375e+00,-7.102976322174072266e+00,nan,-6.754985332489013672e+00,-6.870741367340087891e+00,nan,-6.934337615966796875e+00,-6.665949821472167969e+00,-6.693266868591308594e+00,-6.700057983398437500e+00,-6.682388305664062500e+00,-7.054168701171875000e+00,nan,nan,-6.705627441406250000e+00,-6.612913608551025391e+00,nan,-6.713977813720703125e+00,-6.718031406402587891e+00,-6.719107151031494141e+00,-6.974748611450195312e+00,-6.624625682830810547e+00,nan,-6.879367828369140625e+00,-6.717092514038085938e+00,-6.659033775329589844e+00,nan,nan,-6.721625328063964844e+00,-6.724961757659912109e+00,nan,-6.573012828826904297e+00,-6.627850532531738281e+00,-6.613921642303466797e+00,-6.613992691040039062e+00,-6.461766242980957031e+00,-6.592187881469726562e+00,-6.664567470550537109e+00,-6.655455589294433594e+00,-6.688335418701171875e+00,-6.644640445709228516e+00,-6.344801902770996094e+00,-6.616998672485351562e+00,-6.614735603332519531e+00,-6.595863342285156250e+00,-6.662510871887207031e+00,-6.599315643310546875e+00,-6.672765254974365234e+00,-6.561925888061523438e+00,-6.660345077514648438e+00,-6.568657398223876953e+00,-6.606347560882568359e+00,-6.706768989562988281e+00,-6.938135147094726562e+00,nan,-6.637107849121093750e+00,-6.995982646942138672e+00,-7.044103145599365234e+00,-6.528268814086914062e+00,-6.645760536193847656e+00,nan,-7.110767841339111328e+00,-6.628649711608886719e+00,-6.625322818756103516e+00,nan,-6.575235843658447266e+00,-6.563597202301025391e+00,-6.553029060363769531e+00,-6.600616455078125000e+00,-6.497255325317382812e+00,nan,-6.461118698120117188e+00,-6.445985317230224609e+00,-6.430619716644287109e+00,-6.416122436523437500e+00,-6.380205631256103516e+00,-6.366343021392822266e+00,-6.341837406158447266e+00,-6.326950073242187500e+00,-6.357752323150634766e+00,-6.414945125579833984e+00,-6.422285079956054688e+00,-6.355675220489501953e+00,-6.221265792846679688e+00,-6.360126495361328125e+00,-6.284459114074707031e+00,-6.281408786773681641e+00,-6.313843250274658203e+00,-6.327627658843994141e+00,-6.389015674591064453e+00,-6.328518390655517578e+00,-6.348145008087158203e+00,-6.427451133728027344e+00,-6.429905891418457031e+00,-6.347240447998046875e+00,-6.327318668365478516e+00,-6.464445114135742188e+00,-6.430455207824707031e+00,-6.398287773132324219e+00,-6.444899559020996094e+00,-6.459466934204101562e+00,-6.441299438476562500e+00,-6.465822696685791016e+00,-6.450771331787109375e+00,-6.391933441162109375e+00,-6.388474941253662109e+00,-6.372363090515136719e+00,-6.322548866271972656e+00,-6.273160457611083984e+00,-6.256413936614990234e+00,-6.226317405700683594e+00,-6.258239746093750000e+00,-6.319828033447265625e+00,-6.237569332122802734e+00,-6.281305313110351562e+00,-6.280940055847167969e+00,-6.289742946624755859e+00,-6.290338516235351562e+00,-5.908411502838134766e+00,-6.253243446350097656e+00,-6.255112648010253906e+00,-6.290855884552001953e+00,-6.288910865783691406e+00,nan,nan,nan,nan,nan,nan,nan,nan,nan,nan,nan,nan,nan,nan,nan
-7.873501300811767578e+00,-7.841134071350097656e+00,-7.846654891967773438e+00,-7.773114681243896484e+00,-7.837647438049316406e+00,-7.770049095153808594e+00,-7.678524971008300781e+00,-7.701045036315917969e+00,-7.594426155090332031e+00,-6.995926856994628906e+00,-7.505007266998291016e+00,-7.558888435363769531e+00,-7.551600933074951172e+00,-7.517093658447265625e+00,-7.461288452148437500e+00,-7.479846954345703125e+00,-6.804102420806884766e+00,-7.529448509216308594e+00,-7.539096355438232422e+00,-6.883020877838134766e+00,-6.937086105346679688e+00,-7.302987575531005859e+00,-6.920063495635986328e+00,-6.922482490539550781e+00,-6.580164432525634766e+00,-6.745725154876708984e+00,-6.851883411407470703e+00,-6.864056110382080078e+00,-6.620946884155273438e+00,-6.785517692565917969e+00,-7.093608379364013672e+00,-6.776938438415527344e+00,-7.077996730804443359e+00,-6.930930137634277344e+00,-6.790153503417968750e+00,-6.671507835388183594e+00,-6.679119110107421875e+00,-6.684716701507568359e+00,nan,-6.688498020172119141e+00,-6.665342330932617188e+00,-6.691698074340820312e+00,-6.391436576843261719e+00,-6.698917388916015625e+00,-6.703325748443603516e+00,-6.707990169525146484e+00,-6.708512783050537109e+00,nan,-6.716089248657226562e+00,-6.692997455596923828e+00,nan,-6.675218105316162109e+00,-6.616148948669433594e+00,-6.531859397888183594e+00,-6.674731731414794922e+00,-6.407964706420898438e+00,-6.670538902282714844e+00,-6.578184604644775391e+00,nan,-6.594772815704345703e+00,-6.599800586700439453e+00,-6.566336631774902344e+00,-6.394378662109375000e+00,-6.582581043243408203e+00,-6.644393920898437500e+00,-6.647875785827636719e+00,-6.635406970977783203e+00,-6.624428749084472656e+00,-6.544417381286621094e+00,-6.612524032592773438e+00,-6.604200839996337891e+00,-6.593185424804687500e+00,-6.583475112915039062e+00,-6.575117588043212891e+00,-6.572365760803222656e+00,-6.543014526367187500e+00,-6.646885871887207031e+00,-6.511442184448242188e+00,-6.635798931121826172e+00,-6.590541839599609375e+00,-6.605944156646728516e+00,-6.611498832702636719e+00,-6.483391761779785156e+00,-6.587433338165283203e+00,-6.572298049926757812e+00,-6.561138629913330078e+00,-6.644036293029785156e+00,-6.982796192169189453e+00,nan,-6.627992630004882812e+00,-6.614835739135742188e+00,-6.618533134460449219e+00,-6.565098285675048828e+00,-6.562866687774658203e+00,-6.546187877655029297e+00,-6.515089988708496094e+00,-6.503763198852539062e+00,-6.484415531158447266e+00,-6.472932338714599609e+00,-6.449141979217529297e+00,-6.429241180419921875e+00,-6.406100273132324219e+00,-6.380650520324707031e+00,-6.359826087951660156e+00,-6.346955299377441406e+00,nan,-6.343141555786132812e+00,-6.344715595245361328e+00,-6.302036762237548828e+00,nan,-6.352670669555664062e+00,-6.338673591613769531e+00,-6.610232353210449219e+00,-6.237297534942626953e+00,nan,-6.707188129425048828e+00,-6.313671588897705078e+00,-6.310868740081787109e+00,-6.403118610382080078e+00,-6.472214698791503906e+00,-6.280522823333740234e+00,-6.383567333221435547e+00,-6.313218593597412109e+00,-6.310059547424316406e+00,-6.398132324218750000e+00,-6.415894985198974609e+00,-6.384572982788085938e+00,-6.441842555999755859e+00,-6.437553405761718750e+00,-6.331078529357910156e+00,-6.410989761352539062e+00,-6.302982330322265625e+00,-6.306262016296386719e+00,-6.369482994079589844e+00,nan,-6.233206272125244141e+00,-6.261380672454833984e+00,-6.233333587646484375e+00,-6.270767211914062500e+00,-6.134764671325683594e+00,nan,nan,-6.255103111267089844e+00,-6.246806144714355469e+00,-6.328628540039062500e+00,-6.246918678283691406e+00,nan,-6.279582023620605469e+00,-6.231028079986572266e+00,nan,-6.311195373535156250e+00,-6.362824916839599609e+00,nan,nan,nan,nan,nan,nan,nan,nan,-6.381409645080566406e+00,nan,nan,nan,nan
-7.870913982391357422e+00,-7.810347557067871094e+00,-7.784732818603515625e+00,-7.806679725646972656e+00,-7.755363464355468750e+00,-7.692911148071289062e+00,-7.689891338348388672e+00,-7.602499008178710938e+00,-7.529922485351562500e+00,-7.515924930572509766e+00,-7.542507648468017578e+00,-7.520313262939453125e+00,-7.491676330566406250e+00,-7.428605079650878906e+00,-7.439746856689453125e+00,-7.379204273223876953e+00,-7.460171699523925781e+00,-7.532735347747802734e+00,-7.018612384796142578e+00,-7.459002017974853516e+00,-6.914339542388916016e+00,-6.916305541992187500e+00,-6.916891098022460938e+00,-6.564059257507324219e+00,-6.862281799316406250e+00,-6.863061904907226562e+00,-6.822494029998779297e+00,-6.843346595764160156e+00,-6.828086853027343750e+00,-6.904644012451171875e+00,-6.903851032257080078e+00,-6.920459747314453125e+00,-6.925706863403320312e+00,-6.649430274963378906e+00,-6.654720306396484375e+00,-6.662525653839111328e+00,-6.664770126342773438e+00,-6.664457321166992188e+00,-6.684471130371093750e+00,-6.646239280700683594e+00,-6.676904678344726562e+00,-6.620148181915283203e+00,-6.692908763885498047e+00,-6.695754528045654297e+00,-6.596982002258300781e+00,-6.698740005493164062e+00,-6.702298164367675781e+00,-6.699081897735595703e+00,-6.670385360717773438e+00,-6.750656604766845703e+00,-6.665152549743652344e+00,-6.663558959960937500e+00,-6.649749279022216797e+00,-6.632149696350097656e+00,-6.687086105346679688e+00,-6.629237651824951172e+00,-6.487524509429931641e+00,-6.488160133361816406e+00,-6.387628555297851562e+00,nan,-6.570861816406250000e+00,-6.881652355194091797e+00,-6.507331848144531250e+00,-6.529408931732177734e+00,-6.537153720855712891e+00,-6.566417694091796875e+00,-6.345544815063476562e+00,-6.323388099670410156e+00,nan,-6.470652580261230469e+00,-6.485754489898681641e+00,-6.566306591033935547e+00,-6.563741683959960938e+00,-6.556426525115966797e+00,-6.546820640563964844e+00,-6.535891056060791016e+00,-6.545817375183105469e+00,-6.506381988525390625e+00,-6.609922409057617188e+00,-6.593788623809814453e+00,-6.598430633544921875e+00,-6.606575012207031250e+00,-6.473443031311035156e+00,-6.558493614196777344e+00,nan,-6.992740631103515625e+00,-6.926706790924072266e+00,-6.586612224578857422e+00,nan,-6.616771697998046875e+00,-6.507972717285156250e+00,-6.960483074188232422e+00,nan,-6.369165420532226562e+00,-6.459547996520996094e+00,-6.519519805908203125e+00,-6.506716251373291016e+00,-6.484943866729736328e+00,-6.461654186248779297e+00,-6.449976921081542969e+00,-6.413105964660644531e+00,-6.407399177551269531e+00,-6.380797386169433594e+00,-6.364083766937255859e+00,nan,-6.350361824035644531e+00,nan,-6.297443389892578125e+00,nan,nan,nan,-6.304882049560546875e+00,-6.559050559997558594e+00,-6.557625293731689453e+00,-6.485745429992675781e+00,-6.652893066406250000e+00,-6.592591762542724609e+00,-6.226702213287353516e+00,-6.218606948852539062e+00,-6.292152404785156250e+00,-6.378082275390625000e+00,-6.379038810729980469e+00,-6.363477230072021484e+00,-6.329522609710693359e+00,-6.341615200042724609e+00,-6.370333671569824219e+00,-6.396572113037109375e+00,-6.324399948120117188e+00,-6.313342094421386719e+00,-6.344059467315673828e+00,-6.348932266235351562e+00,-6.361100196838378906e+00,-6.373340606689453125e+00,-6.374332427978515625e+00,-6.365155696868896484e+00,nan,nan,nan,nan,nan,nan,-6.239323616027832031e+00,-6.157358169555664062e+00,-6.163728713989257812e+00,-6.256152153015136719e+00,-6.259016990661621094e+00,-6.264052867889404297e+00,-6.267621994018554688e+00,-6.050082206726074219e+00,nan,nan,-6.300030708312988281e+00,nan,nan,nan,nan,nan,nan,nan,nan,nan,nan,nan,nan,nan
-7.900498867034912109e+00,-7.848536491394042969e+00,-7.831893444061279297e+00,-7.808347225189208984e+00,-7.750922203063964844e+00,-7.730560302734375000e+00,-7.676275253295898438e+00,-7.543339729309082031e+00,-7.493937015533447266e+00,-6.847303390502929688e+00,-7.508557319641113281e+00,-7.470723152160644531e+00,-7.420726776123046875e+00,-7.401093006134033203e+00,-7.444473266601562500e+00,-7.454201698303222656e+00,-6.773323059082031250e+00,-6.768715381622314453e+00,-6.791042327880859375e+00,-6.903058052062988281e+00,-6.905169486999511719e+00,-6.916165828704833984e+00,-6.923398971557617188e+00,-6.832462787628173828e+00,-6.849290847778320312e+00,nan,-7.105731487274169922e+00,-6.764739036560058594e+00,-6.877193450927734375e+00,-6.898110866546630859e+00,-6.870198726654052734e+00,-6.629409313201904297e+00,-6.636391639709472656e+00,-6.645907878875732422e+00,-6.311439514160156250e+00,-6.657114982604980469e+00,-6.656750679016113281e+00,-6.662876129150390625e+00,-6.670658111572265625e+00,-6.552273273468017578e+00,-6.634307861328125000e+00,-6.607496738433837891e+00,-6.626615047454833984e+00,-6.671967983245849609e+00,-6.626859664916992188e+00,-6.690785408020019531e+00,-6.692143440246582031e+00,-6.683893203735351562e+00,-6.684709072113037109e+00,-6.681826114654541016e+00,-6.615529060363769531e+00,-6.577883720397949219e+00,-6.661932468414306641e+00,-6.682958126068115234e+00,-6.684130668640136719e+00,-6.590703964233398438e+00,-6.374190807342529297e+00,-6.429183959960937500e+00,-6.371243476867675781e+00,nan,nan,nan,nan,nan,-6.542234420776367188e+00,-6.560191631317138672e+00,nan,-6.418864250183105469e+00,-6.545419216156005859e+00,-6.520993232727050781e+00,-6.293404102325439453e+00,-6.260587692260742188e+00,-6.554891586303710938e+00,-6.548478126525878906e+00,-6.539270877838134766e+00,-6.521617889404296875e+00,-6.502052307128906250e+00,-6.528082847595214844e+00,-6.520820617675781250e+00,-6.509414196014404297e+00,-6.473848819732666016e+00,-6.577696323394775391e+00,-6.580683708190917969e+00,-6.542486190795898438e+00,-6.520220756530761719e+00,-6.638206481933593750e+00,-6.922353744506835938e+00,-6.917266368865966797e+00,-6.559527873992919922e+00,-6.623494148254394531e+00,-6.615506172180175781e+00,nan,-6.558511734008789062e+00,-6.543404579162597656e+00,-6.413168907165527344e+00,-6.516424179077148438e+00,-6.502730846405029297e+00,-6.487251758575439453e+00,-6.377175331115722656e+00,-6.365784645080566406e+00,nan,-6.401337146759033203e+00,-6.387582778930664062e+00,-6.376564025878906250e+00,-6.356541633605957031e+00,nan,-6.230139732360839844e+00,-6.285493850708007812e+00,-6.249822139739990234e+00,-6.243475437164306641e+00,nan,nan,nan,nan,-6.296595573425292969e+00,nan,nan,nan,-6.397716045379638672e+00,-6.303791046142578125e+00,-6.400381565093994141e+00,-6.318178176879882812e+00,-6.334851264953613281e+00,-6.329946517944335938e+00,-6.260182857513427734e+00,-6.363310337066650391e+00,-6.338050842285156250e+00,-6.343241214752197266e+00,-6.355836868286132812e+00,-6.344938278198242188e+00,-6.417434692382812500e+00,-6.402481555938720703e+00,-6.358319759368896484e+00,-6.285005092620849609e+00,-6.281826972961425781e+00,-6.345513343811035156e+00,-6.293711185455322266e+00,nan,nan,nan,nan,nan,nan,-6.242972373962402344e+00,nan,-6.177817344665527344e+00,-6.196912765502929688e+00,nan,nan,nan,nan,nan,nan,nan,nan,nan,nan,nan,nan,-6.387382507324218750e+00,nan,nan,nan,nan,nan
-7.768138885498046875e+00,-7.787319183349609375e+00,-7.812475204467773438e+00,-7.714613437652587891e+00,-7.685289382934570312e+00,-7.668123245239257812e+00,-7.560227394104003906e+00,-7.471047878265380859e+00,-7.500701427459716797e+00,-7.499582290649414062e+00,-7.452687263488769531e+00,-7.401746749877929688e+00,-7.398768424987792969e+00,-7.409513950347900391e+00,-7.442240238189697266e+00,-7.444607257843017578e+00,-6.941436290740966797e+00,-6.898512363433837891e+00,-6.897188663482666016e+00,-6.520233631134033203e+00,-6.528798580169677734e+00,-6.545849323272705078e+00,-6.548231124877929688e+00,nan,-7.141346931457519531e+00,-6.496811389923095703e+00,-6.675964832305908203e+00,-6.766002655029296875e+00,-6.827859878540039062e+00,-6.608288764953613281e+00,-6.636288166046142578e+00,-6.627513408660888672e+00,-6.740780353546142578e+00,-6.727366924285888672e+00,-6.642903804779052734e+00,-6.639606475830078125e+00,-6.649281978607177734e+00,-6.658185958862304688e+00,-6.457949161529541016e+00,-6.461709022521972656e+00,nan,nan,-6.648300170898437500e+00,-6.656440258026123047e+00,-6.583847999572753906e+00,-6.585938453674316406e+00,-6.485347270965576172e+00,-6.374726295471191406e+00,-6.621590137481689453e+00,-6.603697776794433594e+00,-6.576895236968994141e+00,-6.540559291839599609e+00,-6.575829505920410156e+00,-6.678530216217041016e+00,-6.603229045867919922e+00,-6.488744258880615234e+00,-6.385565757751464844e+00,-6.506018161773681641e+00,-6.355204582214355469e+00,-6.636165618896484375e+00,-6.347153186798095703e+00,-6.414939880371093750e+00,-6.572111129760742188e+00,-6.862480640411376953e+00,-6.322481632232666016e+00,-6.951632976531982422e+00,-6.881012439727783203e+00,-6.912751197814941406e+00,-6.418036937713623047e+00,nan,-6.321088790893554688e+00,-6.262570858001708984e+00,-6.533720970153808594e+00,-6.537318706512451172e+00,-6.527963161468505859e+00,-6.510544776916503906e+00,-6.499128341674804688e+00,-6.170786857604980469e+00,-6.566524982452392578e+00,-6.468000411987304688e+00,-6.541757583618164062e+00,-6.514075756072998047e+00,-6.529566287994384766e+00,-6.517408370971679688e+00,-6.520887851715087891e+00,-6.616228103637695312e+00,-6.894607067108154297e+00,-6.912669658660888672e+00,-6.602508544921875000e+00,-6.522878170013427734e+00,-6.970686435699462891e+00,nan,-6.566563129425048828e+00,-6.557337284088134766e+00,-6.490920066833496094e+00,-6.494622230529785156e+00,-6.500338554382324219e+00,-6.480577945709228516e+00,-6.466508388519287109e+00,-6.380689144134521484e+00,nan,-6.956807613372802734e+00,-6.382808685302734375e+00,-6.367115020751953125e+00,-6.876559734344482422e+00,nan,nan,nan,-6.248509407043457031e+00,-6.240272521972656250e+00,nan,nan,nan,nan,nan,nan,-6.505383968353271484e+00,-6.540822982788085938e+00,nan,-6.206558227539062500e+00,-6.210064888000488281e+00,-6.272534370422363281e+00,-6.205080032348632812e+00,-6.311959266662597656e+00,-6.293994903564453125e+00,-6.299712181091308594e+00,-6.319049835205078125e+00,-6.333291053771972656e+00,-6.300804138183593750e+00,-6.268550395965576172e+00,nan,-6.389609813690185547e+00,-6.328935623168945312e+00,-6.298169136047363281e+00,-6.293392181396484375e+00,nan,nan,nan,nan,nan,nan,nan,nan,nan,nan,nan,nan,nan,nan,nan,nan,nan,-6.341195106506347656e+00,-6.265503406524658203e+00,nan,nan,nan,-6.395591735839843750e+00,-6.258564472198486328e+00,-6.260342121124267578e+00,nan,nan,nan,nan,nan
-7.710005760192871094e+00,-7.702159404754638672e+00,-7.702833652496337891e+00,-7.682614803314208984e+00,-7.612157821655273438e+00,-7.498258113861083984e+00,-7.510457038879394531e+00,-7.492017745971679688e+00,-7.480305671691894531e+00,-7.462422370910644531e+00,-7.377187252044677734e+00,-7.373830318450927734e+00,-7.401827335357666016e+00,-7.397542476654052734e+00,-7.421407699584960938e+00,-7.432966232299804688e+00,-7.237250804901123047e+00,-7.250058174133300781e+00,-6.540807247161865234e+00,-6.517336368560791016e+00,-6.525022506713867188e+00,-6.536973953247070312e+00,-6.542056560516357422e+00,-6.715182304382324219e+00,-6.739703655242919922e+00,-6.698217868804931641e+00,-6.588033676147460938e+00,-6.675333023071289062e+00,-6.716825485229492188e+00,-6.606298446655273438e+00,-6.624451160430908203e+00,-6.699808597564697266e+00,-6.623840332031250000e+00,-6.639100551605224609e+00,-6.635909080505371094e+00,-6.635555267333984375e+00,-6.626276493072509766e+00,-6.672092437744140625e+00,-6.345441341400146484e+00,nan,nan,-6.576858043670654297e+00,-6.647638797760009766e+00,-6.620883464813232422e+00,-6.564568519592285156e+00,-6.522692680358886719e+00,-6.453247547149658203e+00,-6.401922702789306641e+00,-6.534386634826660156e+00,-6.517959117889404297e+00,-6.564760208129882812e+00,-6.584191322326660156e+00,-6.589129447937011719e+00,-6.655309200286865234e+00,-6.819817543029785156e+00,-6.637665271759033203e+00,-6.548007011413574219e+00,-6.603376865386962891e+00,-6.501972198486328125e+00,-6.947667121887207031e+00,-6.800469398498535156e+00,-6.889571666717529297e+00,-6.857730388641357422e+00,-6.821054935455322266e+00,-6.764475345611572266e+00,-6.872687339782714844e+00,-6.876663684844970703e+00,-6.962761402130126953e+00,nan,-6.907606601715087891e+00,-6.898934364318847656e+00,-6.357873439788818359e+00,-6.424591541290283203e+00,-6.213872909545898438e+00,-6.482306957244873047e+00,-6.463912487030029297e+00,-6.487876415252685547e+00,-6.486762523651123047e+00,-6.481956958770751953e+00,-6.549247741699218750e+00,-6.550287723541259766e+00,-6.467902660369873047e+00,-6.525014877319335938e+00,-6.507988452911376953e+00,-6.523091316223144531e+00,-6.352226257324218750e+00,-6.365192890167236328e+00,-6.571982860565185547e+00,-6.506762504577636719e+00,-6.522743225097656250e+00,-7.141870975494384766e+00,nan,-6.884526729583740234e+00,-6.530056476593017578e+00,-6.467193603515625000e+00,-6.431205272674560547e+00,nan,-6.478425025939941406e+00,nan,-6.343313217163085938e+00,-6.332462787628173828e+00,-6.398818016052246094e+00,-6.384557723999023438e+00,-6.379248619079589844e+00,nan,nan,nan,nan,nan,nan,nan,nan,nan,-6.256531238555908203e+00,nan,-6.338519096374511719e+00,-6.278710842132568359e+00,nan,-6.256917476654052734e+00,-6.214724063873291016e+00,-6.165165901184082031e+00,-6.182959556579589844e+00,-6.205368041992187500e+00,-6.131546497344970703e+00,-6.226411342620849609e+00,-6.309756755828857422e+00,-6.297836303710937500e+00,-6.279824256896972656e+00,-6.310285091400146484e+00,-6.321084976196289062e+00,nan,nan,-6.372444152832031250e+00,-6.334746360778808594e+00,-6.323963165283203125e+00,-6.317430019378662109e+00,-6.281877517700195312e+00,nan,nan,nan,nan,nan,nan,nan,nan,nan,nan,nan,nan,nan,nan,nan,nan,nan,nan,nan,nan,nan,nan,nan,nan,nan,nan,nan,nan
-7.786583900451660156e+00,-7.713986873626708984e+00,-7.771272182464599609e+00,-7.707451343536376953e+00,-7.520594596862792969e+00,-7.481311798095703125e+00,-7.481600761413574219e+00,-7.480818271636962891e+00,-7.424814224243164062e+00,-7.393355846405029297e+00,-7.362837314605712891e+00,-7.389192581176757812e+00,-7.394663810729980469e+00,-6.584788799285888672e+00,-7.355538368225097656e+00,-6.777510643005371094e+00,-7.290794372558593750e+00,-6.578770637512207031e+00,-6.574948310852050781e+00,-6.545273780822753906e+00,-6.540482044219970703e+00,-6.532657146453857422e+00,-6.540929317474365234e+00,-6.545061588287353516e+00,-6.812279224395751953e+00,-6.738724708557128906e+00,-6.873395919799804688e+00,-6.711349487304687500e+00,-6.712711334228515625e+00,-6.604832649230957031e+00,-6.623260498046875000e+00,-6.607726097106933594e+00,-6.622851848602294922e+00,-6.625915050506591797e+00,-6.626983642578125000e+00,-6.972177505493164062e+00,-6.563856124877929688e+00,-6.589901447296142578e+00,-6.596064567565917969e+00,-6.577054977416992188e+00,-6.585613727569580078e+00,-6.635062217712402344e+00,-6.499963283538818359e+00,-6.546845912933349609e+00,-6.361379146575927734e+00,-6.368387222290039062e+00,-6.343796730041503906e+00,-6.347053050994873047e+00,-6.446383476257324219e+00,-6.462212562561035156e+00,-6.502418518066406250e+00,-6.929655075073242188e+00,-6.545201778411865234e+00,-6.588043212890625000e+00,-6.532223224639892578e+00,-6.554242134094238281e+00,-6.575133800506591797e+00,-6.373041629791259766e+00,-6.349212169647216797e+00,-6.894093036651611328e+00,-6.854269981384277344e+00,-6.825128555297851562e+00,-6.825654029846191406e+00,-6.810330390930175781e+00,-6.945554733276367188e+00,-6.863846302032470703e+00,-6.889238834381103516e+00,-6.966958045959472656e+00,-6.851282119750976562e+00,-6.927463531494140625e+00,-6.917411327362060547e+00,-6.520679950714111328e+00,-6.826518058776855469e+00,-6.242286205291748047e+00,-6.458927154541015625e+00,nan,-6.478238582611083984e+00,-6.480844497680664062e+00,-6.487947463989257812e+00,-6.445519447326660156e+00,-6.550846576690673828e+00,-6.536251544952392578e+00,-6.507204055786132812e+00,-6.391552448272705078e+00,-6.387958526611328125e+00,-6.483403205871582031e+00,-6.331234931945800781e+00,-6.454566955566406250e+00,-6.482669830322265625e+00,-6.485937118530273438e+00,nan,nan,nan,nan,-6.436979293823242188e+00,-6.509935379028320312e+00,nan,nan,-6.460751533508300781e+00,-6.422848701477050781e+00,-6.330510139465332031e+00,-6.835083484649658203e+00,-6.354762554168701172e+00,-6.360738754272460938e+00,nan,nan,nan,nan,-6.166659355163574219e+00,nan,nan,-6.311553001403808594e+00,nan,nan,-6.329854965209960938e+00,nan,nan,-6.445190906524658203e+00,nan,nan,-6.255517005920410156e+00,-6.149867534637451172e+00,-6.176673889160156250e+00,-6.325182437896728516e+00,-6.178830146789550781e+00,-6.276491165161132812e+00,-6.284736633300781250e+00,-6.275133132934570312e+00,-6.268322944641113281e+00,-6.272403717041015625e+00,-6.256164550781250000e+00,-6.284752845764160156e+00,nan,-6.221252441406250000e+00,-6.312999248504638672e+00,-6.296525478363037109e+00,-6.240544795989990234e+00,nan,nan,nan,nan,nan,nan,nan,nan,nan,nan,nan,nan,nan,nan,nan,nan,nan,nan,nan,nan,-6.340790748596191406e+00,nan,nan,nan,nan,-6.245568275451660156e+00,nan,nan
-7.767529964447021484e+00,-7.622878551483154297e+00,-7.609086036682128906e+00,-7.494620800018310547e+00,-7.479353904724121094e+00,-7.466181755065917969e+00,-7.483169555664062500e+00,-7.366232872009277344e+00,-7.402645111083984375e+00,-7.349044799804687500e+00,-7.384350776672363281e+00,-7.408032417297363281e+00,-7.346758842468261719e+00,-6.550074577331542969e+00,-6.836913108825683594e+00,-6.796634197235107422e+00,-7.314826488494873047e+00,-6.594517230987548828e+00,-6.589622974395751953e+00,-6.536426544189453125e+00,-6.516438007354736328e+00,-6.450597763061523438e+00,-6.536788940429687500e+00,-6.569993495941162109e+00,-6.634908199310302734e+00,-6.676532268524169922e+00,-6.676509380340576172e+00,-6.668283462524414062e+00,-6.648808956146240234e+00,-6.705981254577636719e+00,-6.652653217315673828e+00,-6.619003772735595703e+00,-6.623223781585693359e+00,-6.618105888366699219e+00,-6.933367252349853516e+00,-6.576445579528808594e+00,-6.856237888336181641e+00,-6.604774951934814453e+00,-6.515347003936767578e+00,-6.341503620147705078e+00,-6.390381813049316406e+00,-6.536499023437500000e+00,-6.514445304870605469e+00,-6.320399761199951172e+00,-6.374407768249511719e+00,-6.319634914398193359e+00,-6.321272850036621094e+00,-6.331115245819091797e+00,-6.329366207122802734e+00,-6.571380615234375000e+00,-6.418845653533935547e+00,-6.538593292236328125e+00,-6.825877189636230469e+00,-6.770094394683837891e+00,-6.356766700744628906e+00,-6.564771652221679688e+00,-6.597224235534667969e+00,-6.381574630737304688e+00,-6.326482772827148438e+00,-6.910751819610595703e+00,-7.030719757080078125e+00,-6.934461116790771484e+00,-6.859403610229492188e+00,-6.882688999176025391e+00,-6.885118961334228516e+00,-6.920994758605957031e+00,-6.893293380737304688e+00,-6.482546806335449219e+00,-6.847176074981689453e+00,-6.913610458374023438e+00,-6.851142406463623047e+00,-7.209321975708007812e+00,nan,-6.449358940124511719e+00,-6.459036827087402344e+00,nan,-6.462351799011230469e+00,-6.465801715850830078e+00,nan,-6.476772308349609375e+00,-6.430405616760253906e+00,-6.538568496704101562e+00,-6.517263889312744141e+00,-6.374895095825195312e+00,-6.354448318481445312e+00,-6.435070037841796875e+00,-6.334038257598876953e+00,-6.298160552978515625e+00,-6.280425071716308594e+00,-6.326711654663085938e+00,-6.454704284667968750e+00,-6.425565242767333984e+00,nan,nan,-6.853594303131103516e+00,-6.778774261474609375e+00,-6.439078807830810547e+00,-6.372926712036132812e+00,-6.370369911193847656e+00,-6.381371498107910156e+00,-6.984053134918212891e+00,-6.284749507904052734e+00,-6.307340145111083984e+00,-6.296108722686767578e+00,nan,nan,nan,nan,nan,nan,nan,nan,-6.217347145080566406e+00,nan,nan,nan,nan,nan,nan,-6.207419872283935547e+00,-6.254078865051269531e+00,-6.116389274597167969e+00,-6.182433128356933594e+00,-6.151926040649414062e+00,-6.411087036132812500e+00,-6.171929359436035156e+00,nan,-6.266098976135253906e+00,-6.241516590118408203e+00,-6.260723114013671875e+00,-6.259600162506103516e+00,-6.248778343200683594e+00,-6.254096984863281250e+00,-6.204212665557861328e+00,-6.312821388244628906e+00,-6.309077262878417969e+00,-6.269894599914550781e+00,-6.221843719482421875e+00,nan,-6.156620025634765625e+00,-6.191909790039062500e+00,-6.222561359405517578e+00,nan,-6.094869613647460938e+00,nan,nan,nan,nan,nan,nan,nan,nan,nan,nan,nan,-6.250590324401855469e+00,nan,nan,nan,nan,nan,-6.347187042236328125e+00,nan,nan,nan
-7.598773956298828125e+00,-7.659144401550292969e+00,-7.506495475769042969e+00,-7.495580196380615234e+00,-7.494213104248046875e+00,-7.465606212615966797e+00,-7.405527114868164062e+00,-7.394997119903564453e+00,-7.405757904052734375e+00,-7.393978595733642578e+00,-7.399349689483642578e+00,-7.289563655853271484e+00,-6.828320026397705078e+00,-6.827350616455078125e+00,-6.871999740600585938e+00,-7.169557571411132812e+00,-6.647846698760986328e+00,-7.230780124664306641e+00,nan,-6.498145103454589844e+00,-6.558111667633056641e+00,-6.829223155975341797e+00,-6.646461486816406250e+00,-6.611123561859130859e+00,-6.788738727569580078e+00,-6.670590400695800781e+00,-6.577361583709716797e+00,-6.660744667053222656e+00,-6.672657012939453125e+00,nan,-6.595226287841796875e+00,-6.597388744354248047e+00,-6.592119693756103516e+00,-6.569077968597412109e+00,-6.484168052673339844e+00,-6.550710678100585938e+00,-6.532834053039550781e+00,-6.388239383697509766e+00,-6.461948871612548828e+00,-6.501449108123779297e+00,-6.291986942291259766e+00,-6.497723102569580078e+00,-6.539519309997558594e+00,-6.343945980072021484e+00,-6.301817417144775391e+00,-6.307209014892578125e+00,-6.312467098236083984e+00,-6.459642410278320312e+00,-6.405049800872802734e+00,-6.315733909606933594e+00,-6.307353019714355469e+00,-6.349457740783691406e+00,-6.553905487060546875e+00,-6.497007369995117188e+00,-6.311292648315429688e+00,-6.487034320831298828e+00,-6.554816722869873047e+00,-6.296380996704101562e+00,-6.328703880310058594e+00,-6.544946670532226562e+00,-6.887235164642333984e+00,-6.879084110260009766e+00,-6.895213127136230469e+00,-6.901505470275878906e+00,-6.827998161315917969e+00,-6.879768371582031250e+00,-6.675586223602294922e+00,-6.977580547332763672e+00,-6.992949485778808594e+00,-6.815695762634277344e+00,-6.915736198425292969e+00,-6.794467926025390625e+00,-6.323164939880371094e+00,-6.765008926391601562e+00,nan,-7.030878543853759766e+00,-6.439991474151611328e+00,-6.721569061279296875e+00,-6.685360431671142578e+00,-6.491963386535644531e+00,-6.831018447875976562e+00,-6.756615638732910156e+00,-6.867959499359130859e+00,-6.806977272033691406e+00,-6.806144714355468750e+00,-6.779963970184326172e+00,-6.468117713928222656e+00,-6.378741264343261719e+00,-6.272696018218994141e+00,-6.462920188903808594e+00,-6.455988883972167969e+00,-6.444749355316162109e+00,-6.387182712554931641e+00,nan,-6.445032596588134766e+00,nan,-6.932758331298828125e+00,nan,nan,-6.340103626251220703e+00,-6.934978008270263672e+00,nan,-6.375057697296142578e+00,nan,nan,nan,-6.298297405242919922e+00,nan,nan,nan,-6.237697124481201172e+00,nan,nan,nan,nan,nan,-6.221796035766601562e+00,nan,nan,-6.266906738281250000e+00,-6.173917770385742188e+00,-6.236573219299316406e+00,-6.066348075866699219e+00,-6.203058719635009766e+00,nan,nan,-6.476618766784667969e+00,-6.331837654113769531e+00,-6.238675117492675781e+00,-6.252252578735351562e+00,-6.245154380798339844e+00,-6.206478595733642578e+00,nan,nan,nan,-6.278790950775146484e+00,-6.280261516571044922e+00,-6.209023475646972656e+00,-6.252008438110351562e+00,-6.215161800384521484e+00,nan,nan,nan,nan,nan,nan,nan,nan,nan,nan,nan,nan,nan,nan,nan,nan,nan,-6.241464614868164062e+00,nan,nan,nan,nan,nan,-6.224411010742187500e+00,nan
-7.492382049560546875e+00,-7.454267024993896484e+00,-7.481219291687011719e+00,-7.466188430786132812e+00,-7.402009963989257812e+00,-7.419754981994628906e+00,-7.412525177001953125e+00,nan,-7.374895095825195312e+00,-6.905722618103027344e+00,-7.315741539001464844e+00,-7.402212142944335938e+00,-7.272522449493408203e+00,-7.207201480865478516e+00,-7.248171806335449219e+00,nan,nan,-6.535924434661865234e+00,nan,-6.620929718017578125e+00,nan,nan,nan,-6.614191532135009766e+00,-6.656208038330078125e+00,-6.617184162139892578e+00,-6.556262016296386719e+00,-6.566708087921142578e+00,nan,-6.955352306365966797e+00,-6.575174808502197266e+00,-6.556498050689697266e+00,-6.528023242950439453e+00,-6.544020652770996094e+00,-6.243467330932617188e+00,-6.569648742675781250e+00,-6.510655403137207031e+00,-6.404660701751708984e+00,-6.395283222198486328e+00,-6.263725280761718750e+00,-6.274190902709960938e+00,-6.456839084625244141e+00,-6.286544799804687500e+00,-6.289340496063232422e+00,-6.298135280609130859e+00,-6.248684406280517578e+00,nan,-6.310523033142089844e+00,-6.300886154174804688e+00,-6.295086383819580078e+00,-6.300539016723632812e+00,-6.301348686218261719e+00,-6.293609619140625000e+00,-6.294292449951171875e+00,-6.302556991577148438e+00,-6.291678905487060547e+00,-6.292345046997070312e+00,-6.287783622741699219e+00,-6.425769805908203125e+00,-6.431634426116943359e+00,-6.276023864746093750e+00,-6.393974781036376953e+00,-6.948635101318359375e+00,-6.489730834960937500e+00,-6.934642314910888672e+00,-6.999236583709716797e+00,-6.810260772705078125e+00,-6.823025703430175781e+00,-6.926365375518798828e+00,-6.835222244262695312e+00,-6.635572433471679688e+00,nan,-6.301700115203857422e+00,-6.844990253448486328e+00,-6.735028743743896484e+00,-6.375520229339599609e+00,nan,-6.732025146484375000e+00,-6.729170799255371094e+00,-6.874738216400146484e+00,-6.858739376068115234e+00,-6.396758556365966797e+00,-6.944512367248535156e+00,-6.880939006805419922e+00,-6.770217418670654297e+00,-6.796975612640380859e+00,-6.801499843597412109e+00,nan,-6.064387321472167969e+00,-6.434221744537353516e+00,-6.456736564636230469e+00,-6.433079242706298828e+00,-6.435544013977050781e+00,-6.506619453430175781e+00,-6.462371826171875000e+00,nan,nan,nan,-6.958944320678710938e+00,-6.322489261627197266e+00,-6.816045761108398438e+00,nan,-6.357352256774902344e+00,nan,-6.863670349121093750e+00,-6.294915199279785156e+00,-6.301719188690185547e+00,nan,nan,-6.236510276794433594e+00,-6.226231575012207031e+00,-6.291318893432617188e+00,nan,-6.165875434875488281e+00,nan,-6.211796760559082031e+00,nan,nan,-6.261072158813476562e+00,-6.093388080596923828e+00,-6.302133083343505859e+00,-6.167463302612304688e+00,-6.191610336303710938e+00,-6.085092544555664062e+00,nan,nan,-6.223456382751464844e+00,-6.346270084381103516e+00,-6.179099082946777344e+00,-6.128483772277832031e+00,-6.178077220916748047e+00,-6.118245601654052734e+00,-6.177743434906005859e+00,-6.200748920440673828e+00,-6.189900398254394531e+00,nan,-6.230476856231689453e+00,-6.169583320617675781e+00,-6.076969623565673828e+00,-6.238376617431640625e+00,nan,-6.105014801025390625e+00,nan,nan,nan,nan,nan,nan,nan,nan,nan,nan,nan,nan,nan,nan,nan,nan,nan,nan,nan,nan,nan,nan,nan
-7.450066089630126953e+00,-7.466385364532470703e+00,-7.483732223510742188e+00,-7.439993381500244141e+00,-7.405126571655273438e+00,-7.413151264190673828e+00,-7.395747184753417969e+00,nan,-7.381822586059570312e+00,-7.273805618286132812e+00,-6.908813476562500000e+00,-7.302435398101806641e+00,-7.209707260131835938e+00,-7.281544685363769531e+00,nan,nan,nan,nan,nan,-7.011430263519287109e+00,nan,nan,nan,-6.348251342773437500e+00,-6.307859420776367188e+00,-6.544863700866699219e+00,-6.553105354309082031e+00,-6.592863082885742188e+00,-6.660418987274169922e+00,-6.941808223724365234e+00,-6.450922012329101562e+00,-6.484916210174560547e+00,-6.401856422424316406e+00,-6.421399593353271484e+00,-6.241137504577636719e+00,-6.403204441070556641e+00,-6.408829212188720703e+00,-6.358490943908691406e+00,-6.286201477050781250e+00,-6.268499374389648438e+00,-6.270421981811523438e+00,-6.268836498260498047e+00,-6.388275623321533203e+00,-6.295917987823486328e+00,-6.312877655029296875e+00,-6.348346233367919922e+00,-6.677385330200195312e+00,-6.212437152862548828e+00,-6.287178039550781250e+00,-6.347211360931396484e+00,-6.287466049194335938e+00,-6.286440849304199219e+00,-6.288378238677978516e+00,-6.280502796173095703e+00,-6.289365768432617188e+00,-6.330935478210449219e+00,-6.278311729431152344e+00,-6.411680698394775391e+00,-6.264883518218994141e+00,-6.253284454345703125e+00,-6.260571479797363281e+00,-6.440533161163330078e+00,-6.435494422912597656e+00,-6.550450801849365234e+00,-6.840972900390625000e+00,-6.652797698974609375e+00,-6.822666168212890625e+00,-6.488202571868896484e+00,-6.665786743164062500e+00,nan,-6.830540180206298828e+00,-6.913580894470214844e+00,-6.942159175872802734e+00,-6.917418479919433594e+00,-6.253108978271484375e+00,-6.404685020446777344e+00,-6.701473236083984375e+00,-6.837580680847167969e+00,nan,nan,-6.856112957000732422e+00,-6.965208530426025391e+00,-6.813538074493408203e+00,-6.807786941528320312e+00,nan,-6.793269157409667969e+00,-6.822393417358398438e+00,-6.833666801452636719e+00,nan,-6.436182975769042969e+00,nan,-6.458986282348632812e+00,-6.420357227325439453e+00,-6.415578842163085938e+00,-6.431881427764892578e+00,-6.422397613525390625e+00,-6.874275207519531250e+00,-6.432331085205078125e+00,nan,-6.964906215667724609e+00,nan,nan,-6.270904064178466797e+00,-6.276180267333984375e+00,-6.305905818939208984e+00,-6.214138031005859375e+00,-6.206942558288574219e+00,nan,nan,-6.178099632263183594e+00,nan,-6.174762248992919922e+00,nan,-6.149920940399169922e+00,-6.142891883850097656e+00,-6.128730773925781250e+00,nan,nan,-6.042291641235351562e+00,-6.114355087280273438e+00,-6.152269840240478516e+00,-6.145780563354492188e+00,-6.144830226898193359e+00,-6.137217521667480469e+00,-6.160155773162841797e+00,-6.069126129150390625e+00,-6.179031372070312500e+00,-6.135184288024902344e+00,-6.183488845825195312e+00,nan,-6.127377986907958984e+00,-5.982079505920410156e+00,-6.173194408416748047e+00,-6.169440746307373047e+00,-6.170355796813964844e+00,-6.146926879882812500e+00,-6.133140563964843750e+00,nan,-6.093325614929199219e+00,-6.126733779907226562e+00,-6.135119438171386719e+00,-6.107197761535644531e+00,nan,-6.070552825927734375e+00,nan,nan,nan,nan,nan,nan,nan,nan,nan,nan,nan,-6.161744117736816406e+00,nan,nan,nan,nan,nan,nan,nan,nan,nan
-7.450625419616699219e+00,-7.500630855560302734e+00,-7.400132656097412109e+00,-7.407245159149169922e+00,-7.417651653289794922e+00,-6.927320957183837891e+00,nan,-7.418214321136474609e+00,nan,-7.289232254028320312e+00,-7.295326709747314453e+00,-7.314328193664550781e+00,-7.089569568634033203e+00,nan,nan,nan,nan,nan,-6.474041938781738281e+00,-6.617305278778076172e+00,-6.485144138336181641e+00,-6.417053699493408203e+00,nan,-6.513658046722412109e+00,-6.530507564544677734e+00,-6.536386489868164062e+00,nan,nan,nan,-6.225056648254394531e+00,-6.530069351196289062e+00,-6.442677497863769531e+00,-6.385576248168945312e+00,-6.445706367492675781e+00,-6.762343406677246094e+00,-6.227648735046386719e+00,-6.228377342224121094e+00,-6.229394912719726562e+00,-6.233883857727050781e+00,-6.257905960083007812e+00,-6.248544692993164062e+00,-6.256057739257812500e+00,-6.268396854400634766e+00,-6.257314205169677734e+00,-6.774152278900146484e+00,-6.706528663635253906e+00,-6.729089260101318359e+00,-6.239905357360839844e+00,-6.208447933197021484e+00,nan,-6.340758800506591797e+00,-6.705787658691406250e+00,-6.268492221832275391e+00,-6.267259120941162109e+00,-6.263373374938964844e+00,-6.291519165039062500e+00,-6.263549327850341797e+00,-6.416114330291748047e+00,-6.253819465637207031e+00,-6.246603012084960938e+00,-6.244987964630126953e+00,-6.434349060058593750e+00,-6.345288753509521484e+00,-6.340262413024902344e+00,-6.469809532165527344e+00,-6.856427192687988281e+00,-6.945965766906738281e+00,-6.840604782104492188e+00,-6.792692184448242188e+00,-6.377008914947509766e+00,-6.655519962310791016e+00,-6.789495944976806641e+00,-6.739104270935058594e+00,-6.473133563995361328e+00,-6.356507301330566406e+00,-6.911804199218750000e+00,nan,-6.883524417877197266e+00,-6.763254165649414062e+00,-6.694632530212402344e+00,-6.951701641082763672e+00,-6.892835617065429688e+00,-6.795357704162597656e+00,-6.758361339569091797e+00,-6.762702941894531250e+00,nan,-6.745246410369873047e+00,-6.829678535461425781e+00,nan,nan,-6.364408969879150391e+00,-6.320025444030761719e+00,-6.403210163116455078e+00,nan,-6.386534214019775391e+00,-6.440650939941406250e+00,-6.841311454772949219e+00,nan,nan,-6.398559093475341797e+00,-6.292659759521484375e+00,-6.234618663787841797e+00,-6.272283554077148438e+00,nan,-6.244989395141601562e+00,-6.215445041656494141e+00,nan,-6.183943748474121094e+00,nan,nan,nan,nan,nan,-5.743465900421142578e+00,-6.122713565826416016e+00,-6.106123924255371094e+00,-5.886140346527099609e+00,nan,nan,-6.210725307464599609e+00,-6.141428947448730469e+00,-6.113169670104980469e+00,-5.959139347076416016e+00,-6.121756076812744141e+00,-6.102319240570068359e+00,-6.068540096282958984e+00,-6.046013832092285156e+00,-6.083667755126953125e+00,-5.999698162078857422e+00,-6.104994297027587891e+00,-6.049354553222656250e+00,-6.112164020538330078e+00,-6.099669933319091797e+00,-6.093446731567382812e+00,-6.117231845855712891e+00,-6.095255374908447266e+00,-6.132328033447265625e+00,-6.110754489898681641e+00,-6.099498748779296875e+00,-6.088415145874023438e+00,-6.044928550720214844e+00,-6.088983058929443359e+00,nan,nan,-6.145539283752441406e+00,-6.147750854492187500e+00,nan,nan,nan,nan,nan,nan,nan,nan,nan,nan,nan,nan,-6.115833282470703125e+00,nan,nan,nan,nan,nan,nan
-7.484120845794677734e+00,-7.453150272369384766e+00,-7.416527748107910156e+00,-7.414967536926269531e+00,nan,-7.410349369049072266e+00,nan,nan,-7.284004211425781250e+00,-7.186467647552490234e+00,-7.164151668548583984e+00,-7.160467624664306641e+00,-7.260550975799560547e+00,nan,-6.478163242340087891e+00,-6.460982799530029297e+00,-6.639256954193115234e+00,nan,-6.468942165374755859e+00,nan,-6.473441123962402344e+00,-6.557609558105468750e+00,-6.442311286926269531e+00,-6.488525390625000000e+00,-6.521568298339843750e+00,-6.517510890960693359e+00,nan,-6.840599060058593750e+00,-6.325625896453857422e+00,-6.362437725067138672e+00,-6.186608791351318359e+00,-6.176971435546875000e+00,-6.190452575683593750e+00,-6.319350719451904297e+00,-6.942346096038818359e+00,-6.223305702209472656e+00,-6.220165252685546875e+00,-6.223703384399414062e+00,-6.223822593688964844e+00,-6.238149642944335938e+00,-6.245138168334960938e+00,-6.709166526794433594e+00,-6.263449192047119141e+00,-6.225809097290039062e+00,-7.212888240814208984e+00,-6.791802883148193359e+00,-6.749910354614257812e+00,-6.285283088684082031e+00,-6.846161842346191406e+00,-6.703075408935546875e+00,-6.713564395904541016e+00,-6.847345352172851562e+00,-6.238038063049316406e+00,-6.248836517333984375e+00,-6.249029159545898438e+00,-6.260071277618408203e+00,-6.843548774719238281e+00,-6.360925674438476562e+00,-6.299319267272949219e+00,-6.143048286437988281e+00,-6.320010662078857422e+00,-6.367423534393310547e+00,-6.235754013061523438e+00,-6.202167510986328125e+00,-6.263965129852294922e+00,-6.397361755371093750e+00,-6.330861091613769531e+00,-6.825812339782714844e+00,-6.880858898162841797e+00,-6.840465068817138672e+00,-6.787901878356933594e+00,-6.825783252716064453e+00,-6.653254508972167969e+00,-7.041537761688232422e+00,-6.354531288146972656e+00,-6.784915924072265625e+00,-6.704048633575439453e+00,-6.708801746368408203e+00,-6.791624069213867188e+00,-6.752672672271728516e+00,nan,-6.760551452636718750e+00,-6.735546112060546875e+00,-6.789511680603027344e+00,-6.754842758178710938e+00,nan,nan,-6.729105472564697266e+00,-7.024435997009277344e+00,-6.945461750030517578e+00,nan,nan,-6.295435428619384766e+00,-6.347650527954101562e+00,-6.393678665161132812e+00,-6.360887527465820312e+00,-6.369332790374755859e+00,-6.379318714141845703e+00,nan,-6.832612991333007812e+00,nan,-6.257459163665771484e+00,-6.259736537933349609e+00,nan,nan,nan,nan,nan,-6.166054248809814453e+00,nan,-6.122738838195800781e+00,-6.187172412872314453e+00,-6.181483268737792969e+00,nan,-6.050081253051757812e+00,-6.078578472137451172e+00,nan,-6.189612388610839844e+00,nan,nan,nan,nan,-5.950743675231933594e+00,-5.911546707153320312e+00,-6.092698097229003906e+00,-5.925930976867675781e+00,-6.003232955932617188e+00,-5.839766979217529297e+00,-5.828089714050292969e+00,-5.996007919311523438e+00,-5.980832099914550781e+00,-5.987994194030761719e+00,-5.971137046813964844e+00,-6.101963996887207031e+00,-6.145829200744628906e+00,-6.102396488189697266e+00,-6.054357528686523438e+00,-6.099399089813232422e+00,-6.095366477966308594e+00,-6.080447196960449219e+00,-6.161599636077880859e+00,-6.073498249053955078e+00,-6.117971420288085938e+00,nan,-6.056059360504150391e+00,nan,nan,-6.091192245483398438e+00,nan,nan,nan,nan,nan,nan,nan,nan,nan,nan,nan,nan,nan,nan,nan,nan,nan
-7.439564704895019531e+00,-7.392577171325683594e+00,-7.429584980010986328e+00,nan,-7.397396087646484375e+00,-7.421075820922851562e+00,nan,nan,nan,-7.047911167144775391e+00,nan,nan,nan,nan,nan,-6.537738323211669922e+00,-6.406630516052246094e+00,-6.423205375671386719e+00,-6.475383758544921875e+00,-6.480767726898193359e+00,-6.679895401000976562e+00,nan,-6.476344585418701172e+00,-6.507469177246093750e+00,-6.502156734466552734e+00,-6.137358188629150391e+00,-6.138121128082275391e+00,-6.538476467132568359e+00,-6.452164173126220703e+00,-6.361046791076660156e+00,-6.363589286804199219e+00,-6.173131465911865234e+00,-6.183481216430664062e+00,-6.184924602508544922e+00,-6.184735298156738281e+00,nan,-6.185409545898437500e+00,-6.222616195678710938e+00,-6.251235008239746094e+00,-6.816904544830322266e+00,nan,-6.722406864166259766e+00,-6.839977264404296875e+00,-6.718544483184814453e+00,-7.152499198913574219e+00,nan,-6.801306247711181641e+00,-6.253186702728271484e+00,-6.265593528747558594e+00,-6.690669059753417969e+00,nan,-6.732872009277343750e+00,-6.285998821258544922e+00,-6.313454627990722656e+00,-6.235460758209228516e+00,-6.276484012603759766e+00,-6.403455734252929688e+00,-7.097962379455566406e+00,-6.747844696044921875e+00,-6.380927562713623047e+00,-6.253363609313964844e+00,-6.249137878417968750e+00,-6.193125724792480469e+00,-6.193108081817626953e+00,-6.185171604156494141e+00,-6.250416755676269531e+00,-6.348250865936279297e+00,-6.644302368164062500e+00,-6.950366973876953125e+00,-7.165521621704101562e+00,-6.442997932434082031e+00,-6.454174041748046875e+00,-6.601674079895019531e+00,-6.766760826110839844e+00,-6.628085136413574219e+00,-6.688246726989746094e+00,-6.602517127990722656e+00,-6.672411918640136719e+00,-6.830584526062011719e+00,-6.315388202667236328e+00,-6.793934822082519531e+00,-6.818163394927978516e+00,-6.728986740112304688e+00,nan,-6.791379928588867188e+00,nan,-6.735901355743408203e+00,-6.825473785400390625e+00,-6.822418212890625000e+00,nan,-6.807037353515625000e+00,nan,-6.332738876342773438e+00,-6.299344062805175781e+00,nan,-6.362887859344482422e+00,-6.340769767761230469e+00,-6.409751415252685547e+00,-6.285877227783203125e+00,-6.337981224060058594e+00,-6.319608211517333984e+00,-6.244047164916992188e+00,-6.254763126373291016e+00,-6.240552425384521484e+00,-6.773953914642333984e+00,nan,nan,-6.164276599884033203e+00,nan,-6.201819896697998047e+00,-6.114572525024414062e+00,-6.194844245910644531e+00,-6.175534248352050781e+00,-6.203930854797363281e+00,-6.209612369537353516e+00,-6.240990638732910156e+00,nan,nan,nan,nan,nan,nan,-5.851588249206542969e+00,-5.866891860961914062e+00,-6.218202590942382812e+00,-5.839272499084472656e+00,-5.859686374664306641e+00,-5.840099334716796875e+00,-5.832364082336425781e+00,-5.805627346038818359e+00,-5.775892734527587891e+00,-5.967826843261718750e+00,-5.935923576354980469e+00,-5.928075790405273438e+00,nan,-6.079950332641601562e+00,-6.036017894744873047e+00,-6.033481597900390625e+00,-5.987035274505615234e+00,-5.996950149536132812e+00,-6.002284049987792969e+00,-6.012497901916503906e+00,-6.130462169647216797e+00,-6.097342014312744141e+00,-6.026366233825683594e+00,nan,nan,-6.126486778259277344e+00,-6.078522682189941406e+00,nan,nan,nan,nan,nan,nan,nan,nan,nan,nan,nan,nan,nan,nan,nan,nan
-7.413141250610351562e+00,-7.405632495880126953e+00,nan,nan,nan,nan,nan,nan,-7.235448837280273438e+00,nan,nan,nan,nan,nan,nan,-6.515022754669189453e+00,-6.498928546905517578e+00,nan,nan,-6.488431453704833984e+00,-6.471553802490234375e+00,-6.490664482116699219e+00,-6.491212844848632812e+00,-6.479622840881347656e+00,-6.454106330871582031e+00,-6.298423290252685547e+00,-6.122511863708496094e+00,-6.530233860015869141e+00,-6.324400424957275391e+00,-6.465205192565917969e+00,-6.437894344329833984e+00,nan,nan,-6.173455715179443359e+00,-6.179737091064453125e+00,-6.827956676483154297e+00,-6.821036338806152344e+00,-6.817815303802490234e+00,-6.731950759887695312e+00,-6.615981578826904297e+00,-6.613999366760253906e+00,-6.941233158111572266e+00,-6.681177139282226562e+00,-6.045018196105957031e+00,-6.170933723449707031e+00,-6.626447200775146484e+00,-5.976661205291748047e+00,-6.725150108337402344e+00,-6.667701721191406250e+00,-6.705063343048095703e+00,-6.636109828948974609e+00,-6.713185787200927734e+00,-6.742066383361816406e+00,-6.805199623107910156e+00,-6.290755271911621094e+00,-6.231554985046386719e+00,-6.830786705017089844e+00,-6.689771652221679688e+00,-6.614716053009033203e+00,-6.291110992431640625e+00,-6.192958831787109375e+00,-6.188279628753662109e+00,-6.192829608917236328e+00,-6.296542644500732422e+00,-6.171244144439697266e+00,-6.204290390014648438e+00,-6.316355705261230469e+00,-6.379829883575439453e+00,-6.372380733489990234e+00,-6.334740161895751953e+00,-6.324483871459960938e+00,-6.670231819152832031e+00,-6.448873996734619141e+00,-6.460861206054687500e+00,-6.358675003051757812e+00,-6.395188331604003906e+00,-6.828154087066650391e+00,-6.670182228088378906e+00,-6.876332283020019531e+00,-6.858243942260742188e+00,-6.649429798126220703e+00,-6.687773704528808594e+00,nan,-6.752534389495849609e+00,-6.672134399414062500e+00,-6.710167407989501953e+00,nan,nan,-6.835265636444091797e+00,-6.946064949035644531e+00,nan,-6.768383502960205078e+00,-6.878971099853515625e+00,-6.295750617980957031e+00,-6.328081607818603516e+00,nan,-6.335199356079101562e+00,-6.319909095764160156e+00,-6.318487167358398438e+00,-6.264965057373046875e+00,-6.271991729736328125e+00,-6.253143787384033203e+00,-6.251110553741455078e+00,-6.238821983337402344e+00,-6.676240921020507812e+00,nan,nan,-6.141197204589843750e+00,-6.147719860076904297e+00,-6.104144573211669922e+00,-6.101177215576171875e+00,-6.103029727935791016e+00,-6.136267185211181641e+00,-6.160807609558105469e+00,nan,nan,nan,nan,nan,nan,nan,nan,-5.871609687805175781e+00,-5.825152397155761719e+00,-5.834917068481445312e+00,-5.838003635406494141e+00,-5.864112854003906250e+00,-5.838091850280761719e+00,-5.817631244659423828e+00,-5.894756793975830078e+00,-5.897471427917480469e+00,-5.915458679199218750e+00,-5.930332660675048828e+00,-5.916903495788574219e+00,-5.951353549957275391e+00,-6.055986404418945312e+00,-6.016097545623779297e+00,-5.982430458068847656e+00,nan,nan,-5.988087177276611328e+00,-5.998439788818359375e+00,-6.142451286315917969e+00,-6.109216213226318359e+00,-6.014934539794921875e+00,-6.170498847961425781e+00,nan,nan,nan,nan,-6.046581268310546875e+00,nan,-6.051856040954589844e+00,nan,nan,nan,nan,nan,nan,nan,nan,nan,nan,nan,nan
-7.417416572570800781e+00,nan,nan,nan,nan,nan,nan,nan,nan,nan,nan,nan,nan,nan,nan,-6.416107654571533203e+00,-6.552344322204589844e+00,nan,nan,-6.468740940093994141e+00,-6.479537487030029297e+00,-6.483786582946777344e+00,-6.432018280029296875e+00,-6.414367675781250000e+00,-6.464595317840576172e+00,-6.495458126068115234e+00,-6.481482505798339844e+00,-6.522538185119628906e+00,-6.482203960418701172e+00,-6.480299472808837891e+00,nan,nan,nan,-6.204156875610351562e+00,nan,-6.822161197662353516e+00,nan,nan,-6.559333801269531250e+00,-6.663566589355468750e+00,-6.631294250488281250e+00,-6.697497367858886719e+00,-6.679152488708496094e+00,-6.168567657470703125e+00,-6.205558776855468750e+00,-6.210301399230957031e+00,-6.206810951232910156e+00,-6.205327033996582031e+00,-6.211034774780273438e+00,-6.699917316436767578e+00,-6.741973876953125000e+00,-6.706112861633300781e+00,-6.730605602264404297e+00,-6.257511138916015625e+00,-6.236174583435058594e+00,-6.216441154479980469e+00,-6.220269203186035156e+00,-6.764006137847900391e+00,-7.103807449340820312e+00,-6.717366695404052734e+00,-6.189974308013916016e+00,-6.211295604705810547e+00,-5.977969169616699219e+00,-6.859513759613037109e+00,-5.910207271575927734e+00,-6.178390502929687500e+00,-6.220090866088867188e+00,-6.319698333740234375e+00,-6.335578918457031250e+00,-6.316640853881835938e+00,-6.307538986206054688e+00,-6.328203678131103516e+00,-6.328867912292480469e+00,-6.705213069915771484e+00,-6.411616325378417969e+00,-6.298033237457275391e+00,-6.284415245056152344e+00,-6.257427692413330078e+00,-6.783608913421630859e+00,-6.772833824157714844e+00,-6.691944122314453125e+00,-6.675821781158447266e+00,-6.778826236724853516e+00,-6.674888134002685547e+00,-6.672290802001953125e+00,-6.663441658020019531e+00,nan,nan,-6.885203838348388672e+00,-6.877609729766845703e+00,nan,nan,nan,-6.283015251159667969e+00,-6.195762634277343750e+00,-6.310063362121582031e+00,-6.335891246795654297e+00,-6.312602996826171875e+00,-6.274431228637695312e+00,-6.246853351593017578e+00,-6.195675373077392578e+00,-6.216491699218750000e+00,-6.222356796264648438e+00,-6.216782569885253906e+00,nan,nan,nan,-6.185783386230468750e+00,-6.144380092620849609e+00,-6.134574890136718750e+00,-6.107939243316650391e+00,-6.094137191772460938e+00,nan,nan,nan,nan,-6.196140289306640625e+00,-6.220061302185058594e+00,nan,-5.882218360900878906e+00,-5.927518844604492188e+00,nan,nan,nan,-5.941626548767089844e+00,-5.935215950012207031e+00,-5.917133331298828125e+00,-5.926048755645751953e+00,-5.716685295104980469e+00,-5.771848201751708984e+00,-5.796615600585937500e+00,-5.751778602600097656e+00,-5.755856990814208984e+00,-5.988155841827392578e+00,-5.898238182067871094e+00,-5.877055168151855469e+00,-5.960250854492187500e+00,-6.062762737274169922e+00,-6.042790889739990234e+00,-5.973828315734863281e+00,-6.024267196655273438e+00,-6.032191276550292969e+00,-5.918092250823974609e+00,-6.122320652008056641e+00,-6.086431503295898438e+00,nan,nan,nan,nan,nan,nan,nan,nan,nan,nan,nan,nan,nan,nan,nan,nan,nan,nan,nan,nan
nan,-7.289507389068603516e+00,nan,nan,nan,nan,nan,nan,nan,nan,nan,nan,nan,nan,-6.511356830596923828e+00,nan,-6.453580379486083984e+00,nan,nan,-6.384117603302001953e+00,-6.390789031982421875e+00,-6.259431838989257812e+00,nan,nan,-6.336334705352783203e+00,-6.506000041961669922e+00,-6.502664566040039062e+00,-6.491359710693359375e+00,-6.451481819152832031e+00,-6.276650428771972656e+00,nan,nan,-6.144518375396728516e+00,-6.222408771514892578e+00,nan,nan,nan,nan,-6.109791278839111328e+00,-6.620544433593750000e+00,-6.171083927154541016e+00,nan,nan,-6.736893653869628906e+00,-6.191976547241210938e+00,-6.219805717468261719e+00,-6.154945850372314453e+00,-6.181023597717285156e+00,-6.206179141998291016e+00,-6.267813682556152344e+00,-6.675196170806884766e+00,-6.311498165130615234e+00,-6.071354866027832031e+00,-6.196647644042968750e+00,-6.188422203063964844e+00,-6.186413288116455078e+00,-6.168716907501220703e+00,-6.323204517364501953e+00,-6.765244007110595703e+00,-6.234643936157226562e+00,-6.286396503448486328e+00,-6.635626792907714844e+00,-6.716813087463378906e+00,-6.713357925415039062e+00,-5.929589271545410156e+00,-6.094795703887939453e+00,-6.166169166564941406e+00,-6.129610538482666016e+00,-6.195178985595703125e+00,-6.216445922851562500e+00,-6.260993480682373047e+00,-6.307355880737304688e+00,-6.320947170257568359e+00,-6.457442760467529297e+00,-6.380730628967285156e+00,-6.406676292419433594e+00,-6.328666210174560547e+00,-6.352514266967773438e+00,-6.605115413665771484e+00,-6.480788707733154297e+00,-6.793041229248046875e+00,-6.663756847381591797e+00,-6.742516040802001953e+00,nan,-6.739063739776611328e+00,-6.803966522216796875e+00,nan,-6.718572139739990234e+00,nan,nan,-6.909913539886474609e+00,-6.317363262176513672e+00,-6.882376194000244141e+00,-6.876845836639404297e+00,-6.729124546051025391e+00,-6.333586692810058594e+00,-6.307857036590576172e+00,-6.296440601348876953e+00,-6.170753955841064453e+00,-6.189812183380126953e+00,-6.220930099487304688e+00,nan,-6.168349742889404297e+00,-6.185072422027587891e+00,-6.718739032745361328e+00,nan,nan,nan,nan,-6.107325077056884766e+00,-6.094708442687988281e+00,-6.068624496459960938e+00,-5.985352516174316406e+00,-6.117193698883056641e+00,nan,nan,nan,-6.141855239868164062e+00,-6.154576778411865234e+00,-6.038576126098632812e+00,-5.892848968505859375e+00,-5.723385334014892578e+00,-5.861757278442382812e+00,-5.848510265350341797e+00,-5.906721591949462891e+00,-5.888423442840576172e+00,-5.900327682495117188e+00,-5.844273090362548828e+00,-6.119590282440185547e+00,-5.764952659606933594e+00,-5.765506267547607422e+00,-5.754443645477294922e+00,-5.728157997131347656e+00,-5.832685470581054688e+00,-5.883882522583007812e+00,-5.897619724273681641e+00,-6.073538303375244141e+00,nan,-5.967629432678222656e+00,-5.965585708618164062e+00,-5.955837249755859375e+00,-5.925299644470214844e+00,-5.996946334838867188e+00,nan,-6.042787551879882812e+00,-6.068647384643554688e+00,nan,nan,nan,nan,nan,nan,nan,nan,nan,nan,nan,nan,nan,nan,nan,nan,nan,nan,nan
nan,nan,nan,nan,nan,nan,nan,nan,nan,nan,nan,-6.413120746612548828e+00,-6.469686031341552734e+00,nan,nan,nan,nan,nan,nan,-6.181518554687500000e+00,-6.375875473022460938e+00,-6.215179920196533203e+00,-6.584474086761474609e+00,-6.293594360351562500e+00,-6.501451492309570312e+00,-6.502521514892578125e+00,-6.443999767303466797e+00,-6.465626239776611328e+00,-6.368302345275878906e+00,nan,nan,nan,-6.270595073699951172e+00,nan,nan,nan,nan,-6.167478561401367188e+00,-6.027726173400878906e+00,-6.100567817687988281e+00,-6.157719135284423828e+00,-6.175302028656005859e+00,-6.669550418853759766e+00,-6.535648345947265625e+00,-6.176070690155029297e+00,-5.840896129608154297e+00,-6.201172828674316406e+00,-6.182792186737060547e+00,-6.170819282531738281e+00,-6.755609989166259766e+00,nan,-6.194819450378417969e+00,-6.214011669158935547e+00,-6.182993412017822266e+00,-6.182866096496582031e+00,-6.175472259521484375e+00,-6.193432807922363281e+00,-6.349144458770751953e+00,-6.649559020996093750e+00,-6.743881225585937500e+00,-6.710803985595703125e+00,-7.014499187469482422e+00,-6.592573165893554688e+00,-6.943933486938476562e+00,-5.859668731689453125e+00,-6.007778167724609375e+00,-5.836430072784423828e+00,-6.174198150634765625e+00,-6.168778896331787109e+00,-6.171925067901611328e+00,-6.238046169281005859e+00,-6.205568313598632812e+00,-6.260383605957031250e+00,-6.676584243774414062e+00,-6.723581314086914062e+00,-6.266631603240966797e+00,-6.135842800140380859e+00,-6.224039554595947266e+00,-6.659825801849365234e+00,-6.391338348388671875e+00,-6.735273361206054688e+00,-6.852365016937255859e+00,nan,-6.744238376617431641e+00,nan,-6.650157451629638672e+00,-6.643350601196289062e+00,-6.820384979248046875e+00,nan,nan,nan,-6.273053646087646484e+00,-6.727530479431152344e+00,-6.179264068603515625e+00,nan,-6.279095172882080078e+00,-6.293169021606445312e+00,-6.202928066253662109e+00,-6.190812110900878906e+00,-6.160806179046630859e+00,-6.183932304382324219e+00,-6.177420616149902344e+00,-6.261148452758789062e+00,-6.568847179412841797e+00,nan,nan,nan,nan,nan,nan,-6.057979106903076172e+00,-6.054092407226562500e+00,-5.982011795043945312e+00,nan,nan,nan,nan,-6.047047615051269531e+00,-5.826052665710449219e+00,-6.063580989837646484e+00,-5.979084968566894531e+00,-5.868617057800292969e+00,-5.945293426513671875e+00,-5.901544094085693359e+00,-5.905569553375244141e+00,-5.896124362945556641e+00,-5.883006572723388672e+00,-5.852146625518798828e+00,nan,-5.708455085754394531e+00,-5.747190475463867188e+00,-5.759632110595703125e+00,-5.725744247436523438e+00,-5.760845661163330078e+00,-6.077893257141113281e+00,-5.659357547760009766e+00,-5.937638282775878906e+00,-6.064918994903564453e+00,-6.068092346191406250e+00,-6.063566207885742188e+00,nan,-6.037575244903564453e+00,-6.050897598266601562e+00,-6.013427257537841797e+00,-6.003634929656982422e+00,-6.026492595672607422e+00,nan,-6.045426845550537109e+00,nan,nan,nan,nan,nan,nan,nan,nan,nan,nan,nan,nan,nan,nan,nan,nan,nan
nan,nan,nan,nan,nan,nan,nan,nan,nan,nan,nan,nan,nan,nan,nan,nan,nan,nan,nan,nan,nan,-6.191466808319091797e+00,nan,nan,-6.396677970886230469e+00,nan,-6.375549316406250000e+00,-6.232057571411132812e+00,nan,-6.326052665710449219e+00,nan,nan,nan,-6.124776840209960938e+00,-6.117334842681884766e+00,-6.130087852478027344e+00,-6.132965564727783203e+00,-6.136088371276855469e+00,-6.119851112365722656e+00,-6.141226768493652344e+00,-6.142866134643554688e+00,-6.158579826354980469e+00,-6.165656089782714844e+00,-6.137218952178955078e+00,-6.159569263458251953e+00,-6.241313934326171875e+00,-6.170475482940673828e+00,-6.184114456176757812e+00,-6.165411949157714844e+00,-6.169400215148925781e+00,-6.189260482788085938e+00,-6.129039764404296875e+00,-6.050559997558593750e+00,-6.179794788360595703e+00,-6.159667968750000000e+00,-6.155293464660644531e+00,-6.162770748138427734e+00,-6.797419071197509766e+00,-6.205636501312255859e+00,-6.867928981781005859e+00,-6.709892272949218750e+00,-6.685533046722412109e+00,-6.724692821502685547e+00,-6.809516906738281250e+00,-6.671856880187988281e+00,nan,-6.885421752929687500e+00,-6.148522377014160156e+00,-6.128191471099853516e+00,-6.148913383483886719e+00,-6.150253295898437500e+00,-6.123707294464111328e+00,-6.615112304687500000e+00,-6.327250480651855469e+00,-6.660912513732910156e+00,-6.145549774169921875e+00,-6.727642059326171875e+00,-6.742908000946044922e+00,-6.659216403961181641e+00,nan,-6.696725368499755859e+00,-6.663874149322509766e+00,nan,-6.773138523101806641e+00,nan,nan,-6.714873790740966797e+00,-6.820346355438232422e+00,-6.805462837219238281e+00,nan,-6.858747959136962891e+00,-6.346422195434570312e+00,-6.263414382934570312e+00,-6.124510765075683594e+00,nan,-5.946537017822265625e+00,-6.136236190795898438e+00,-6.204626083374023438e+00,-6.191416740417480469e+00,-6.136250019073486328e+00,-6.141033172607421875e+00,-6.167905330657958984e+00,-6.601729393005371094e+00,-6.278044700622558594e+00,-6.158445835113525391e+00,nan,nan,-6.137146472930908203e+00,nan,nan,nan,nan,nan,nan,nan,nan,-6.087949752807617188e+00,nan,-5.974239349365234375e+00,-5.922409057617187500e+00,-5.963108062744140625e+00,-5.958137512207031250e+00,-5.867456436157226562e+00,-5.898477554321289062e+00,-5.899953842163085938e+00,-5.927969932556152344e+00,-5.866490364074707031e+00,-5.850036621093750000e+00,-5.785345077514648438e+00,-5.790976524353027344e+00,-5.689360141754150391e+00,-5.706684112548828125e+00,-5.720661640167236328e+00,-5.705722332000732422e+00,-6.022732734680175781e+00,-5.648627281188964844e+00,-5.788082122802734375e+00,-5.656173706054687500e+00,-6.054972648620605469e+00,nan,nan,nan,-5.905572414398193359e+00,-6.009441852569580078e+00,-5.973330497741699219e+00,-6.023761272430419922e+00,nan,-6.061862945556640625e+00,-5.976983070373535156e+00,nan,nan,nan,nan,nan,nan,nan,nan,nan,nan,nan,nan,nan,nan,nan,nan
nan,nan,nan,nan,nan,nan,nan,nan,nan,nan,nan,nan,nan,nan,nan,nan,nan,nan,nan,nan,nan,nan,-6.471026420593261719e+00,nan,nan,nan,-6.373425483703613281e+00,-6.233079910278320312e+00,-6.071186065673828125e+00,-6.238518238067626953e+00,nan,-6.044541358947753906e+00,-6.080478191375732422e+00,-6.115271091461181641e+00,-6.211536407470703125e+00,-6.133606910705566406e+00,-6.126278400421142578e+00,-6.153358459472656250e+00,-6.131374359130859375e+00,-6.138815879821777344e+00,-6.138669013977050781e+00,-6.147546768188476562e+00,-6.103323936462402344e+00,-6.145182609558105469e+00,-6.127021312713623047e+00,-6.148767948150634766e+00,nan,-6.087553024291992188e+00,-6.142757892608642578e+00,-6.155882835388183594e+00,-6.151679039001464844e+00,-6.151422500610351562e+00,-6.141478538513183594e+00,-6.215610980987548828e+00,-6.012791156768798828e+00,-6.110698699951171875e+00,-6.146650314331054688e+00,-6.275452613830566406e+00,-6.204106330871582031e+00,-6.805810928344726562e+00,-6.707808017730712891e+00,-6.720231056213378906e+00,-6.789594650268554688e+00,-6.829648971557617188e+00,-6.517263412475585938e+00,-6.981630325317382812e+00,-6.871566772460937500e+00,nan,-6.082779884338378906e+00,-5.924226760864257812e+00,-5.767240047454833984e+00,-6.754812717437744141e+00,-6.347871303558349609e+00,-6.527663230895996094e+00,-6.683001995086669922e+00,-6.733994007110595703e+00,-6.677507400512695312e+00,-6.775430202484130859e+00,-6.456867218017578125e+00,-6.784219264984130859e+00,-6.677723407745361328e+00,-6.756420612335205078e+00,-6.586403846740722656e+00,nan,-6.748810768127441406e+00,nan,-6.636078834533691406e+00,-6.726225376129150391e+00,-6.732205867767333984e+00,nan,-6.759925842285156250e+00,-6.818822383880615234e+00,nan,-6.294731616973876953e+00,-6.272031784057617188e+00,-6.244450569152832031e+00,-6.215501308441162109e+00,-6.104676246643066406e+00,-6.040017604827880859e+00,-6.024262428283691406e+00,-6.075072765350341797e+00,nan,-6.745391845703125000e+00,nan,nan,nan,nan,nan,-6.113646030426025391e+00,nan,nan,nan,nan,nan,nan,nan,-6.079786777496337891e+00,-6.079861640930175781e+00,nan,-5.997540950775146484e+00,-5.929024696350097656e+00,-5.973099708557128906e+00,-5.693369865417480469e+00,nan,-5.842479705810546875e+00,-5.826838970184326172e+00,-5.791993618011474609e+00,-5.851975440979003906e+00,-5.677318572998046875e+00,-5.801763534545898438e+00,-5.781941413879394531e+00,-5.755325794219970703e+00,-5.521296977996826172e+00,-5.529587745666503906e+00,nan,-6.226274490356445312e+00,-5.920665264129638672e+00,-6.064679622650146484e+00,-6.131541252136230469e+00,-6.045796871185302734e+00,nan,nan,nan,-5.848161697387695312e+00,-5.980096817016601562e+00,-5.847906589508056641e+00,nan,nan,-5.881488323211669922e+00,nan,nan,nan,nan,nan,nan,nan,nan,nan,nan,nan,nan,nan,nan,nan,nan
nan,nan,nan,nan,nan,nan,nan,nan,nan,nan,nan,nan,nan,nan,nan,nan,nan,nan,nan,nan,nan,-6.456964969635009766e+00,-6.462406158447265625e+00,nan,nan,nan,nan,-6.023176193237304688e+00,-6.069877624511718750e+00,-6.290475845336914062e+00,nan,-6.098450660705566406e+00,-6.078773975372314453e+00,-6.120408058166503906e+00,-6.129222393035888672e+00,-6.086344242095947266e+00,-6.112915992736816406e+00,-6.075466632843017578e+00,-6.118699073791503906e+00,-6.124969959259033203e+00,-6.008072853088378906e+00,-6.129621028900146484e+00,-6.127417087554931641e+00,-6.135971546173095703e+00,-6.035082340240478516e+00,-6.141393661499023438e+00,-6.638643264770507812e+00,-6.104881286621093750e+00,-6.134234428405761719e+00,-6.199437141418457031e+00,-6.141536712646484375e+00,-6.136637687683105469e+00,-6.184687614440917969e+00,-6.177734375000000000e+00,-6.213338851928710938e+00,-6.781559467315673828e+00,-6.712451934814453125e+00,-6.235508918762207031e+00,-6.280813217163085938e+00,-6.816387176513671875e+00,-6.927001953125000000e+00,-6.697453975677490234e+00,-6.586745738983154297e+00,-6.926661968231201172e+00,-6.588029384613037109e+00,-6.725175380706787109e+00,-6.658580303192138672e+00,-6.674973487854003906e+00,-5.856363296508789062e+00,-5.890465259552001953e+00,-5.970592975616455078e+00,-6.555055141448974609e+00,-6.315134048461914062e+00,-6.317217350006103516e+00,nan,-6.511471271514892578e+00,-6.770750999450683594e+00,nan,-6.457468986511230469e+00,nan,-6.734495162963867188e+00,-6.568273544311523438e+00,nan,-6.566900253295898438e+00,nan,-6.725039958953857422e+00,-6.361236095428466797e+00,-5.932317733764648438e+00,nan,-6.746517658233642578e+00,-6.753911495208740234e+00,-6.825652122497558594e+00,nan,nan,-6.250410079956054688e+00,-6.208130359649658203e+00,-6.211374282836914062e+00,nan,-6.004877567291259766e+00,-5.994292259216308594e+00,nan,nan,nan,nan,nan,nan,nan,nan,nan,-6.094734191894531250e+00,-6.105705261230468750e+00,nan,nan,nan,nan,nan,-6.142362594604492188e+00,nan,nan,-5.790873527526855469e+00,-6.001062393188476562e+00,-5.820217609405517578e+00,-5.675239562988281250e+00,-5.662385940551757812e+00,nan,nan,-5.875393867492675781e+00,nan,nan,nan,-5.773280143737792969e+00,-5.770770549774169922e+00,-5.692762374877929688e+00,-5.663367748260498047e+00,-5.831647872924804688e+00,-5.707433223724365234e+00,-5.895734310150146484e+00,nan,-5.916471958160400391e+00,nan,-5.990601062774658203e+00,nan,nan,nan,-5.983624935150146484e+00,nan,-5.978771209716796875e+00,-5.977798461914062500e+00,nan,-5.975848197937011719e+00,-6.010014533996582031e+00,nan,nan,nan,-5.973237037658691406e+00,nan,nan,nan,nan,nan,nan,nan,nan,nan,-6.079152107238769531e+00
nan,nan,nan,nan,nan,nan,nan,-6.656124591827392578e+00,nan,nan,nan,nan,nan,nan,nan,-6.286477565765380859e+00,nan,nan,nan,nan,nan,-6.446038246154785156e+00,nan,nan,nan,nan,nan,nan,-6.173108577728271484e+00,nan,-6.066477775573730469e+00,-6.076612949371337891e+00,-6.086843013763427734e+00,nan,-6.148808479309082031e+00,-6.105103492736816406e+00,-6.092589855194091797e+00,-6.108330249786376953e+00,-6.110918998718261719e+00,-6.114712715148925781e+00,-5.722092628479003906e+00,-5.712778568267822266e+00,-6.035602569580078125e+00,-6.054409027099609375e+00,-6.394470214843750000e+00,-6.069090366363525391e+00,-6.598472595214843750e+00,-6.141261100769042969e+00,-6.129301071166992188e+00,-5.988053321838378906e+00,-6.100092887878417969e+00,-6.116880416870117188e+00,-6.716853141784667969e+00,-6.847586631774902344e+00,-6.777497768402099609e+00,nan,-6.598669052124023438e+00,-6.113014221191406250e+00,-6.605448722839355469e+00,nan,-6.786571025848388672e+00,-6.712203502655029297e+00,-6.701425552368164062e+00,-6.712233066558837891e+00,-6.727238178253173828e+00,-6.704076290130615234e+00,-6.847235679626464844e+00,-6.434899330139160156e+00,-6.654533863067626953e+00,-6.442130088806152344e+00,-6.630722045898437500e+00,-6.540672779083251953e+00,-6.518725395202636719e+00,-6.628180027008056641e+00,-6.605979919433593750e+00,nan,-6.467545032501220703e+00,nan,-6.639817714691162109e+00,nan,-6.579805374145507812e+00,-6.549855709075927734e+00,-6.613399982452392578e+00,-6.637239456176757812e+00,-6.648473262786865234e+00,-6.696424961090087891e+00,-6.719413757324218750e+00,-6.776690483093261719e+00,-6.834673881530761719e+00,-6.841536521911621094e+00,-6.652007102966308594e+00,nan,nan,-6.240951538085937500e+00,-6.233069419860839844e+00,-6.206257820129394531e+00,-6.192286014556884766e+00,nan,nan,nan,nan,-6.620940208435058594e+00,-6.819433212280273438e+00,nan,nan,nan,nan,nan,-6.149014472961425781e+00,nan,nan,nan,nan,nan,nan,-6.081844806671142578e+00,nan,-5.514986991882324219e+00,nan,-5.727108478546142578e+00,-5.955849170684814453e+00,-5.958962440490722656e+00,-5.993413448333740234e+00,-5.879753589630126953e+00,-5.666728019714355469e+00,-5.569350242614746094e+00,-5.860269546508789062e+00,-5.904605865478515625e+00,nan,nan,nan,-5.721490383148193359e+00,-5.758372306823730469e+00,-5.774727821350097656e+00,nan,-5.768909454345703125e+00,-5.917637825012207031e+00,-5.910824775695800781e+00,-6.163917541503906250e+00,nan,nan,-5.941032409667968750e+00,nan,nan,nan,nan,-5.962050914764404297e+00,-5.913548946380615234e+00,nan,nan,nan,nan,nan,nan,nan,nan,nan,-6.086956977844238281e+00,nan,nan,nan,nan,-6.096465110778808594e+00,nan,nan
nan,nan,nan,nan,nan,nan,nan,nan,nan,nan,nan,nan,nan,nan,nan,nan,-6.165321350097656250e+00,-6.116590976715087891e+00,nan,-6.359653472900390625e+00,-6.435359954833984375e+00,-6.442031860351562500e+00,nan,nan,nan,nan,nan,nan,nan,nan,-5.968150138854980469e+00,-6.086753368377685547e+00,-6.063923358917236328e+00,-6.084164142608642578e+00,-6.078813552856445312e+00,-6.081707954406738281e+00,-6.097717761993408203e+00,-6.096274852752685547e+00,-6.097795963287353516e+00,-6.055251598358154297e+00,-6.113011360168457031e+00,-5.767694950103759766e+00,-5.788684844970703125e+00,-6.446763038635253906e+00,-6.105723857879638672e+00,-6.063539505004882812e+00,-6.640992164611816406e+00,-6.642465591430664062e+00,-6.491246223449707031e+00,-6.185822963714599609e+00,-6.131965637207031250e+00,-6.505428791046142578e+00,-6.774200916290283203e+00,-6.120142936706542969e+00,-6.151394844055175781e+00,-6.170380115509033203e+00,nan,-6.591049194335937500e+00,-6.559319972991943359e+00,-6.713186740875244141e+00,-6.668169021606445312e+00,-6.217272758483886719e+00,-6.664946079254150391e+00,-6.486714839935302734e+00,-6.479376316070556641e+00,-6.422506809234619141e+00,-6.773307323455810547e+00,nan,-6.709626674652099609e+00,nan,-6.134486198425292969e+00,-6.640380382537841797e+00,-6.684762954711914062e+00,-6.706000328063964844e+00,-6.648803234100341797e+00,-6.518667697906494141e+00,-6.555848121643066406e+00,-6.829702854156494141e+00,-6.855072021484375000e+00,nan,-6.678044795989990234e+00,-6.361088752746582031e+00,-6.645617961883544922e+00,-6.608471393585205078e+00,-6.345107078552246094e+00,-6.366051673889160156e+00,-6.272353172302246094e+00,-6.821975708007812500e+00,nan,nan,-6.553819179534912109e+00,-6.769896030426025391e+00,nan,-5.864976406097412109e+00,-6.095068931579589844e+00,-6.205940246582031250e+00,-6.133388996124267578e+00,nan,nan,nan,-6.654508590698242188e+00,-6.809449672698974609e+00,nan,nan,nan,nan,nan,nan,nan,nan,nan,nan,nan,nan,nan,-6.069475650787353516e+00,-6.059542655944824219e+00,nan,nan,-6.020642757415771484e+00,-5.865085601806640625e+00,-5.985852241516113281e+00,-5.696284294128417969e+00,-5.893113136291503906e+00,-5.899668216705322266e+00,-5.938119888305664062e+00,-5.728231906890869141e+00,-5.858859062194824219e+00,nan,nan,nan,nan,nan,nan,nan,-5.757049560546875000e+00,nan,nan,-5.815708637237548828e+00,-5.886540412902832031e+00,-5.807896137237548828e+00,-5.970072746276855469e+00,nan,nan,nan,nan,-5.879936218261718750e+00,-5.936055183410644531e+00,nan,nan,nan,nan,nan,nan,nan,-6.148344039916992188e+00,nan,nan,nan,-5.978802680969238281e+00,nan,nan,nan,nan,nan
nan,nan,nan,nan,nan,nan,nan,nan,nan,nan,nan,nan,nan,nan,nan,nan,-6.151857852935791016e+00,nan,nan,-6.358377456665039062e+00,nan,-6.380084514617919922e+00,-6.291407585144042969e+00,nan,-6.137461662292480469e+00,nan,nan,nan,-6.025100708007812500e+00,nan,nan,nan,-6.048885345458984375e+00,-6.057636737823486328e+00,-6.062841415405273438e+00,-6.072018623352050781e+00,-6.068367481231689453e+00,-6.078783035278320312e+00,-5.971264839172363281e+00,-6.038503170013427734e+00,-6.578309059143066406e+00,-5.831802368164062500e+00,-6.397640705108642578e+00,-6.478719711303710938e+00,-6.511443614959716797e+00,nan,-6.542132377624511719e+00,-6.474098682403564453e+00,-6.489647865295410156e+00,-6.495118141174316406e+00,-6.514440536499023438e+00,-6.441927909851074219e+00,-6.144054412841796875e+00,-6.070699214935302734e+00,-6.591912746429443359e+00,nan,-6.098273277282714844e+00,-6.926252365112304688e+00,-6.566642761230468750e+00,-6.535774230957031250e+00,-6.474264144897460938e+00,-6.684762477874755859e+00,-6.683829784393310547e+00,-6.622747898101806641e+00,-6.627199649810791016e+00,-6.489200115203857422e+00,-6.568343162536621094e+00,-6.755560398101806641e+00,-6.510598182678222656e+00,nan,-5.979961872100830078e+00,-5.951104164123535156e+00,-6.538293361663818359e+00,-6.536612510681152344e+00,-6.506852626800537109e+00,-6.480071544647216797e+00,nan,-6.608881473541259766e+00,-6.500079631805419922e+00,-6.635946750640869141e+00,-6.538391113281250000e+00,nan,-6.557037353515625000e+00,nan,-6.629413127899169922e+00,-6.692481517791748047e+00,-6.327746868133544922e+00,-6.373738288879394531e+00,-6.259941101074218750e+00,-6.630831241607666016e+00,nan,-6.694037437438964844e+00,-6.820436954498291016e+00,-5.821955680847167969e+00,-5.905782699584960938e+00,-6.208453178405761719e+00,-6.740216732025146484e+00,nan,nan,nan,nan,-6.617249011993408203e+00,nan,nan,nan,nan,nan,nan,nan,nan,nan,nan,nan,nan,-6.065454483032226562e+00,-5.917171955108642578e+00,nan,nan,-5.864224910736083984e+00,-5.953337192535400391e+00,-5.989171981811523438e+00,-5.975363254547119141e+00,-5.675304412841796875e+00,-5.765245914459228516e+00,-5.777916431427001953e+00,-5.900887966156005859e+00,-5.807107448577880859e+00,-5.852767944335937500e+00,-5.545860767364501953e+00,-5.812022686004638672e+00,nan,nan,nan,nan,nan,nan,nan,-5.946800231933593750e+00,nan,nan,nan,-5.874173164367675781e+00,-5.954810142517089844e+00,nan,-5.980931282043457031e+00,nan,nan,-5.900271892547607422e+00,nan,nan,nan,nan,nan,nan,nan,nan,nan,nan,nan,nan,nan,nan,nan,nan,nan
nan,nan,nan,nan,nan,nan,nan,nan,nan,nan,nan,nan,nan,nan,nan,nan,nan,-6.448159694671630859e+00,nan,nan,nan,-6.376448631286621094e+00,-6.279351234436035156e+00,-6.138119220733642578e+00,nan,nan,nan,nan,nan,nan,nan,-6.003924846649169922e+00,-6.030549049377441406e+00,-6.026536941528320312e+00,-5.918458461761474609e+00,-5.978251457214355469e+00,-6.064457893371582031e+00,-6.065430641174316406e+00,-6.003309726715087891e+00,-6.122894287109375000e+00,-6.542991161346435547e+00,-6.392446517944335938e+00,-6.557002067565917969e+00,nan,-6.725654602050781250e+00,-6.475021839141845703e+00,-6.587437152862548828e+00,-6.077704906463623047e+00,-5.901962757110595703e+00,-6.889039993286132812e+00,-6.508488178253173828e+00,-6.550045967102050781e+00,-6.563173294067382812e+00,-6.083127498626708984e+00,-6.570573329925537109e+00,nan,-6.066345214843750000e+00,-6.669308185577392578e+00,-6.548642158508300781e+00,-6.626914024353027344e+00,-6.529196739196777344e+00,-6.433497905731201172e+00,-6.425065994262695312e+00,-6.716766834259033203e+00,-6.584469795227050781e+00,-6.469409942626953125e+00,nan,-6.625465393066406250e+00,-6.587990760803222656e+00,-6.603189945220947266e+00,-6.018519878387451172e+00,-6.580420970916748047e+00,nan,nan,-6.867337703704833984e+00,-6.449885845184326172e+00,-6.531471252441406250e+00,nan,-6.545711040496826172e+00,nan,-6.515708446502685547e+00,nan,nan,-6.644947528839111328e+00,nan,nan,-6.314763069152832031e+00,-6.307945251464843750e+00,-6.325105190277099609e+00,-6.733856201171875000e+00,-6.549956321716308594e+00,-6.658091545104980469e+00,nan,-6.685865402221679688e+00,-6.046235561370849609e+00,-5.829262733459472656e+00,nan,nan,nan,nan,-6.602632045745849609e+00,nan,-5.952656269073486328e+00,-6.203983306884765625e+00,nan,nan,nan,nan,nan,nan,nan,nan,nan,nan,nan,-5.986357212066650391e+00,-5.994128227233886719e+00,-5.960338592529296875e+00,-5.883922100067138672e+00,-5.909923076629638672e+00,-5.990163326263427734e+00,-5.932638645172119141e+00,-5.423491477966308594e+00,-5.650930404663085938e+00,-5.729858875274658203e+00,-5.844546318054199219e+00,-5.877989292144775391e+00,-5.835525512695312500e+00,-5.821141242980957031e+00,-5.489012241363525391e+00,nan,nan,nan,-5.800424575805664062e+00,nan,nan,nan,-5.762306690216064453e+00,nan,nan,nan,-5.899190902709960938e+00,nan,-5.860087394714355469e+00,-5.897331237792968750e+00,nan,nan,-6.019346237182617188e+00,nan,nan,nan,nan,nan,nan,nan,nan,nan,nan,nan,nan,nan,-6.033011913299560547e+00,nan,nan,nan
nan,nan,nan,nan,nan,nan,nan,nan,nan,nan,nan,nan,nan,nan,nan,nan,-6.559211730957031250e+00,nan,nan,nan,nan,-6.168752670288085938e+00,-6.224308013916015625e+00,-6.138966560363769531e+00,-6.145355701446533203e+00,nan,nan,nan,nan,nan,nan,-6.009377956390380859e+00,-5.941788673400878906e+00,-6.033109664916992188e+00,nan,-6.003412246704101562e+00,-6.055925369262695312e+00,-6.051533699035644531e+00,-6.067646503448486328e+00,-6.382938385009765625e+00,-6.534840583801269531e+00,nan,-6.652391433715820312e+00,nan,-6.449879646301269531e+00,nan,-6.385710239410400391e+00,-6.582622051239013672e+00,-6.566947937011718750e+00,-6.544462680816650391e+00,-6.527862071990966797e+00,-6.661920547485351562e+00,-6.122914314270019531e+00,-6.068305015563964844e+00,-6.517576217651367188e+00,-6.607265949249267578e+00,-6.571231365203857422e+00,-6.508105278015136719e+00,-6.193524837493896484e+00,-6.835789203643798828e+00,-6.786706924438476562e+00,-6.643190860748291016e+00,-6.524776458740234375e+00,-6.741085529327392578e+00,nan,nan,-6.613876819610595703e+00,nan,nan,-6.413327693939208984e+00,-6.627807140350341797e+00,nan,-6.260005950927734375e+00,-6.580240249633789062e+00,-6.630426883697509766e+00,nan,-6.522006034851074219e+00,nan,nan,-6.515415668487548828e+00,-6.609354496002197266e+00,-6.579026699066162109e+00,-6.625263214111328125e+00,nan,nan,-6.532099246978759766e+00,-6.526142597198486328e+00,-6.604250431060791016e+00,-6.716663837432861328e+00,-6.679415225982666016e+00,-6.738504409790039062e+00,-6.700821399688720703e+00,-6.672198295593261719e+00,-6.566620349884033203e+00,nan,nan,nan,nan,nan,-5.943507194519042969e+00,nan,-5.899513721466064453e+00,-5.890727043151855469e+00,-6.192400455474853516e+00,nan,nan,nan,nan,nan,nan,nan,-6.004075527191162109e+00,nan,nan,nan,-6.029288291931152344e+00,nan,nan,nan,nan,-5.864314556121826172e+00,-5.734956264495849609e+00,-5.755920410156250000e+00,-5.575419902801513672e+00,-5.680285930633544922e+00,-5.850483894348144531e+00,-5.761827468872070312e+00,-5.741208076477050781e+00,-5.736677646636962891e+00,-5.510556221008300781e+00,nan,nan,nan,nan,nan,nan,-5.789790153503417969e+00,nan,nan,nan,nan,nan,-5.808855056762695312e+00,nan,nan,nan,nan,nan,nan,nan,nan,nan,nan,nan,nan,nan,nan,nan,nan,nan,nan,nan,nan,nan,nan
nan,nan,nan,nan,nan,nan,nan,nan,nan,nan,nan,nan,-6.268573284149169922e+00,-6.269259929656982422e+00,nan,nan,nan,nan,nan,nan,nan,nan,nan,nan,-6.147223472595214844e+00,-6.137557506561279297e+00,nan,nan,-5.993049621582031250e+00,nan,nan,-5.965073585510253906e+00,-6.008779048919677734e+00,-6.028413295745849609e+00,nan,-6.041271209716796875e+00,-6.001298904418945312e+00,-6.039528846740722656e+00,-6.132743358612060547e+00,-6.489408016204833984e+00,nan,-5.901994705200195312e+00,-6.026912212371826172e+00,-6.052139282226562500e+00,-6.426389217376708984e+00,-6.029705047607421875e+00,nan,-6.399656772613525391e+00,-6.579648017883300781e+00,nan,-6.096816539764404297e+00,-6.095580577850341797e+00,-6.082548618316650391e+00,-6.532273292541503906e+00,-6.501917362213134766e+00,-6.471042633056640625e+00,-6.343929767608642578e+00,-6.609934806823730469e+00,-6.560157299041748047e+00,-6.685482978820800781e+00,-6.781391143798828125e+00,-6.562702655792236328e+00,-6.521413803100585938e+00,nan,-6.522410392761230469e+00,-6.586726665496826172e+00,nan,-6.559842586517333984e+00,nan,nan,-6.433974742889404297e+00,-6.560872077941894531e+00,-6.370662689208984375e+00,-6.251471996307373047e+00,nan,-6.534953117370605469e+00,-6.440790653228759766e+00,-6.758046627044677734e+00,nan,-6.680280685424804688e+00,nan,nan,-6.611553192138671875e+00,nan,-6.625448226928710938e+00,-6.688299179077148438e+00,nan,nan,-6.611487388610839844e+00,nan,-6.091803073883056641e+00,-6.249671936035156250e+00,nan,nan,nan,nan,-6.630200386047363281e+00,nan,nan,-5.934197902679443359e+00,-5.925896644592285156e+00,-5.967005252838134766e+00,-5.946680545806884766e+00,-5.968850135803222656e+00,-6.127972602844238281e+00,nan,nan,nan,nan,-5.982973575592041016e+00,nan,nan,nan,nan,nan,-5.967071533203125000e+00,nan,nan,nan,-5.795802116394042969e+00,-5.908070087432861328e+00,-5.804056644439697266e+00,-5.645857334136962891e+00,-5.544597148895263672e+00,-5.472987174987792969e+00,nan,nan,-5.613084793090820312e+00,-5.585484504699707031e+00,nan,nan,-5.538074493408203125e+00,nan,nan,-5.687110424041748047e+00,-5.672322273254394531e+00,-5.673603057861328125e+00,-5.621495246887207031e+00,nan,-5.576110839843750000e+00,nan,nan,nan,nan,nan,nan,nan,nan,nan,nan,nan,nan,nan,nan,nan,nan,nan,nan,nan,nan,nan,nan,-5.953594207763671875e+00,nan,nan
nan,nan,nan,nan,nan,nan,nan,nan,nan,nan,nan,nan,-6.265425682067871094e+00,-6.230681419372558594e+00,-6.137407779693603516e+00,nan,nan,nan,nan,nan,nan,nan,nan,-6.182284355163574219e+00,-6.087785720825195312e+00,-5.973220825195312500e+00,-5.967828273773193359e+00,-6.078526496887207031e+00,-6.003271102905273438e+00,nan,nan,-5.921100616455078125e+00,-5.939096450805664062e+00,-5.894346237182617188e+00,-5.986460685729980469e+00,nan,-5.947410583496093750e+00,-6.001362800598144531e+00,-6.053344726562500000e+00,-6.023253917694091797e+00,-6.451467514038085938e+00,-5.970195770263671875e+00,-6.043960571289062500e+00,-6.036208629608154297e+00,-6.041925430297851562e+00,-6.368891716003417969e+00,-6.292828559875488281e+00,-6.530705928802490234e+00,-6.518781185150146484e+00,-6.094657897949218750e+00,-6.040720462799072266e+00,-6.034961223602294922e+00,-6.020815372467041016e+00,-6.179808139801025391e+00,-6.517107486724853516e+00,nan,-6.390465736389160156e+00,-6.478412151336669922e+00,-6.580932617187500000e+00,nan,-6.764924526214599609e+00,-6.534612178802490234e+00,nan,-6.639553546905517578e+00,nan,-6.387082576751708984e+00,-6.534289836883544922e+00,-6.252319812774658203e+00,-6.554190635681152344e+00,-6.288868904113769531e+00,-6.556191444396972656e+00,-6.302654743194580078e+00,nan,nan,-6.867157459259033203e+00,nan,-6.295512676239013672e+00,nan,nan,nan,nan,-6.482362270355224609e+00,nan,nan,-6.671771526336669922e+00,nan,-6.537236213684082031e+00,nan,nan,nan,nan,-6.654321193695068359e+00,nan,nan,nan,-6.716289997100830078e+00,nan,nan,-5.944869041442871094e+00,-5.941129207611083984e+00,-5.892675876617431641e+00,nan,nan,-5.867529392242431641e+00,-5.998021125793457031e+00,-5.967412948608398438e+00,nan,nan,nan,nan,nan,nan,nan,nan,-5.925228595733642578e+00,-5.960121154785156250e+00,nan,-5.727859020233154297e+00,-5.703433036804199219e+00,-5.710948467254638672e+00,-5.885398387908935547e+00,-5.798734664916992188e+00,-5.827709197998046875e+00,-5.637121200561523438e+00,-5.709634780883789062e+00,nan,nan,nan,nan,nan,nan,nan,nan,nan,nan,nan,nan,-5.633193492889404297e+00,nan,-5.559598445892333984e+00,-5.544477462768554688e+00,nan,nan,nan,nan,nan,nan,nan,nan,nan,nan,nan,nan,nan,nan,nan,nan,nan,-5.884447097778320312e+00,-6.015758037567138672e+00,nan,nan,nan,-5.831416130065917969e+00,nan
nan,nan,nan,nan,nan,nan,nan,nan,nan,nan,nan,nan,-6.264342308044433594e+00,nan,nan,nan,nan,-6.319320201873779297e+00,nan,nan,nan,nan,nan,nan,nan,-5.921762943267822266e+00,-6.003639221191406250e+00,nan,-5.960486888885498047e+00,-5.965092658996582031e+00,nan,-5.906204700469970703e+00,-5.829456806182861328e+00,-5.878519535064697266e+00,-5.936590671539306641e+00,-6.552510738372802734e+00,-6.005679607391357422e+00,-6.015528202056884766e+00,-6.028089046478271484e+00,-5.946761608123779297e+00,-5.937188148498535156e+00,-5.995448112487792969e+00,-6.038681983947753906e+00,-5.988184928894042969e+00,-5.984534740447998047e+00,-5.960171699523925781e+00,-5.932176589965820312e+00,-6.019576549530029297e+00,-6.025205612182617188e+00,-6.014211654663085938e+00,-6.021448612213134766e+00,-6.014928340911865234e+00,-6.030278205871582031e+00,-5.978289127349853516e+00,-5.847394943237304688e+00,-6.506852149963378906e+00,nan,-6.587583541870117188e+00,-6.327905654907226562e+00,-6.576812744140625000e+00,nan,-6.689993381500244141e+00,nan,-6.469711303710937500e+00,-6.589964866638183594e+00,nan,-6.094072341918945312e+00,-6.432703495025634766e+00,nan,-6.552230358123779297e+00,-6.538675308227539062e+00,-6.523978233337402344e+00,-6.389963150024414062e+00,-6.441084861755371094e+00,-6.598754405975341797e+00,nan,nan,-6.755404472351074219e+00,nan,-6.556486606597900391e+00,nan,nan,nan,nan,-6.621870994567871094e+00,-6.682739257812500000e+00,nan,-6.878632545471191406e+00,nan,nan,-6.731708526611328125e+00,nan,-6.666321277618408203e+00,nan,nan,nan,-6.624424934387207031e+00,nan,nan,nan,-6.478347301483154297e+00,nan,nan,-5.830468177795410156e+00,-5.832535266876220703e+00,-5.813810825347900391e+00,nan,-5.961835861206054688e+00,nan,nan,nan,nan,nan,nan,nan,nan,nan,-5.737753868103027344e+00,-5.702706336975097656e+00,-5.727432250976562500e+00,-5.691966533660888672e+00,-5.811145782470703125e+00,-5.824941635131835938e+00,nan,-5.618864536285400391e+00,-5.761579990386962891e+00,nan,nan,nan,-5.684804916381835938e+00,nan,-5.759359836578369141e+00,nan,nan,-5.724949836730957031e+00,nan,nan,nan,-5.721546173095703125e+00,-5.724318504333496094e+00,-5.462500095367431641e+00,nan,nan,-5.656210899353027344e+00,nan,nan,nan,nan,nan,nan,nan,nan,nan,nan,nan,nan,nan,nan,nan,nan,nan,nan,nan,nan,nan
nan,nan,nan,nan,nan,nan,nan,nan,nan,nan,nan,nan,nan,-6.266934394836425781e+00,-6.066315174102783203e+00,nan,nan,-6.306491851806640625e+00,-6.326868057250976562e+00,nan,nan,nan,nan,nan,nan,nan,nan,nan,-5.956922531127929688e+00,nan,-6.048610687255859375e+00,nan,nan,nan,nan,-6.519738197326660156e+00,nan,-6.398122310638427734e+00,nan,-6.084771156311035156e+00,nan,-5.960416316986083984e+00,-5.982924461364746094e+00,-5.996579170227050781e+00,-5.988225936889648438e+00,-6.001306533813476562e+00,-5.967726707458496094e+00,-6.011596679687500000e+00,-6.010111808776855469e+00,-5.970646858215332031e+00,nan,-6.032920360565185547e+00,-6.022880554199218750e+00,-5.888305664062500000e+00,-5.931805133819580078e+00,-5.729813098907470703e+00,-6.333600521087646484e+00,-6.329576492309570312e+00,-6.571425914764404297e+00,-6.491803646087646484e+00,-6.633267879486083984e+00,-6.422058105468750000e+00,-6.358601570129394531e+00,nan,nan,nan,nan,nan,-6.317032337188720703e+00,nan,-6.284527301788330078e+00,-6.551242828369140625e+00,-6.525551319122314453e+00,-6.452703475952148438e+00,-6.754677295684814453e+00,-6.458708763122558594e+00,-6.452355861663818359e+00,nan,-6.507700920104980469e+00,nan,-6.473171234130859375e+00,-6.524126052856445312e+00,nan,nan,nan,-6.505488395690917969e+00,nan,-6.599102020263671875e+00,nan,nan,-6.531270503997802734e+00,nan,nan,nan,nan,nan,nan,nan,nan,-6.460634231567382812e+00,nan,nan,nan,-5.838982105255126953e+00,-5.813291549682617188e+00,-5.801645755767822266e+00,nan,-5.950497627258300781e+00,nan,nan,nan,nan,nan,nan,-6.010334014892578125e+00,nan,nan,nan,-5.862075805664062500e+00,nan,nan,-5.824782371520996094e+00,-5.805871963500976562e+00,-5.811179637908935547e+00,nan,nan,nan,nan,nan,-5.499333381652832031e+00,nan,-5.637516498565673828e+00,-5.744524478912353516e+00,-5.733611106872558594e+00,nan,-5.570145606994628906e+00,nan,-5.568055152893066406e+00,nan,-5.697061061859130859e+00,-5.758988380432128906e+00,-5.735846042633056641e+00,nan,-5.520486831665039062e+00,-5.799121856689453125e+00,nan,nan,-5.760495662689208984e+00,nan,nan,nan,nan,nan,nan,nan,nan,nan,nan,nan,-5.860383510589599609e+00,nan,nan,nan,nan,nan
nan,nan,nan,nan,nan,nan,nan,nan,nan,nan,nan,nan,nan,-6.267619132995605469e+00,nan,nan,nan,nan,-6.305314540863037109e+00,nan,nan,nan,nan,nan,nan,nan,nan,nan,-5.947937488555908203e+00,nan,nan,nan,nan,nan,nan,nan,nan,nan,nan,-5.986905574798583984e+00,nan,-5.998259067535400391e+00,-5.993788719177246094e+00,-6.001830101013183594e+00,-5.976080894470214844e+00,-5.985220909118652344e+00,-5.970137119293212891e+00,-5.970617294311523438e+00,-5.985860824584960938e+00,-5.941244602203369141e+00,nan,nan,-5.950712680816650391e+00,nan,-6.454558372497558594e+00,-6.409248828887939453e+00,-6.430102348327636719e+00,nan,-6.328805923461914062e+00,nan,-6.535820007324218750e+00,-6.000088691711425781e+00,-6.379843711853027344e+00,-5.914312362670898438e+00,-5.945299625396728516e+00,-6.589649200439453125e+00,-6.466010093688964844e+00,-6.489246368408203125e+00,-6.490374565124511719e+00,nan,nan,-6.290777206420898438e+00,-6.457446098327636719e+00,nan,-6.401327610015869141e+00,-6.280334949493408203e+00,-6.299205780029296875e+00,-6.264965057373046875e+00,-6.505792617797851562e+00,-6.317907810211181641e+00,-6.465673446655273438e+00,nan,-6.291794300079345703e+00,-6.427152156829833984e+00,-6.652538776397705078e+00,-6.658669948577880859e+00,nan,nan,nan,-6.737857341766357422e+00,nan,-6.529206275939941406e+00,nan,nan,nan,nan,-6.510534286499023438e+00,nan,nan,nan,nan,nan,nan,nan,-5.824897766113281250e+00,-5.791036605834960938e+00,nan,-5.955597400665283203e+00,nan,nan,nan,nan,nan,nan,nan,nan,nan,nan,nan,nan,nan,-5.851548194885253906e+00,-5.441275119781494141e+00,-5.647399425506591797e+00,-5.606206893920898438e+00,-5.558920860290527344e+00,nan,nan,nan,-5.499105453491210938e+00,-5.710989475250244141e+00,-5.584415435791015625e+00,-5.656823635101318359e+00,-5.714413642883300781e+00,-5.609106063842773438e+00,-5.614955902099609375e+00,-5.601897716522216797e+00,-5.693465232849121094e+00,-5.616689682006835938e+00,-5.582257747650146484e+00,-5.626203060150146484e+00,-5.669758796691894531e+00,nan,nan,nan,nan,nan,nan,-5.760288238525390625e+00,nan,nan,nan,nan,nan,nan,nan,nan,nan,nan,nan,nan,nan,nan,nan,nan
nan,nan,nan,nan,nan,nan,nan,nan,nan,nan,nan,nan,nan,nan,nan,nan,nan,nan,nan,nan,nan,nan,nan,nan,nan,nan,nan,nan,nan,nan,nan,nan,nan,nan,nan,-5.966089248657226562e+00,nan,nan,nan,nan,-5.965262889862060547e+00,-5.982243061065673828e+00,-5.959942817687988281e+00,-5.987726211547851562e+00,-5.941252708435058594e+00,-6.022932052612304688e+00,-5.831607341766357422e+00,-5.953877925872802734e+00,-5.960229873657226562e+00,-5.924044609069824219e+00,-6.285787582397460938e+00,nan,-6.463137149810791016e+00,nan,-6.073179244995117188e+00,-6.498966693878173828e+00,-6.420115947723388672e+00,-6.572984695434570312e+00,nan,-6.522602081298828125e+00,nan,-5.982238769531250000e+00,nan,-6.417871475219726562e+00,-6.512972831726074219e+00,-6.548050880432128906e+00,-6.478587627410888672e+00,-6.605175018310546875e+00,-6.153959274291992188e+00,-6.044684410095214844e+00,-6.245914936065673828e+00,-6.262021064758300781e+00,nan,-6.067568302154541016e+00,-6.391975402832031250e+00,-6.561490535736083984e+00,-6.254168033599853516e+00,-6.307707309722900391e+00,-6.285551071166992188e+00,nan,nan,-6.246855258941650391e+00,-6.313101291656494141e+00,-6.521610260009765625e+00,-6.552504539489746094e+00,-6.682061195373535156e+00,-6.770252227783203125e+00,-6.588366985321044922e+00,nan,-6.554695606231689453e+00,-6.626784801483154297e+00,-6.469833374023437500e+00,nan,nan,nan,nan,-6.517360210418701172e+00,nan,-6.442143440246582031e+00,nan,nan,nan,nan,nan,-5.996637821197509766e+00,-5.778848648071289062e+00,-5.762274265289306641e+00,nan,nan,nan,nan,nan,nan,nan,nan,nan,nan,-5.904103755950927734e+00,-5.698549747467041016e+00,-5.673719406127929688e+00,nan,-5.431063652038574219e+00,-5.444825172424316406e+00,-5.405961990356445312e+00,-5.779922485351562500e+00,-5.781364440917968750e+00,-5.664360046386718750e+00,nan,-5.744981288909912109e+00,nan,-5.342664718627929688e+00,-5.473259925842285156e+00,-5.395607948303222656e+00,-5.391579151153564453e+00,-5.635068416595458984e+00,-5.465944290161132812e+00,-5.649313449859619141e+00,-5.640294075012207031e+00,-5.616261959075927734e+00,-5.411267280578613281e+00,-5.466569423675537109e+00,-5.574691772460937500e+00,-5.327072143554687500e+00,nan,nan,nan,-5.759404182434082031e+00,-5.728219985961914062e+00,nan,nan,nan,nan,nan,nan,nan,nan,nan,nan,nan,nan,nan,nan,nan,nan,nan
