-8.716369628906250000e+00,-8.674136161804199219e+00,-8.604811668395996094e+00,-8.569711685180664062e+00,-8.559578895568847656e+00,-8.573307991027832031e+00,-8.618795394897460938e+00,-8.594326972961425781e+00,-8.518909454345703125e+00,-8.520599365234375000e+00,-8.532179832458496094e+00,-8.480594635009765625e+00,-8.064618110656738281e+00,-8.475988388061523438e+00,-8.480860710144042969e+00,-8.496782302856445312e+00,-7.820361614227294922e+00,-8.159009933471679688e+00,-8.264519691467285156e+00,-7.801976203918457031e+00,-7.798948287963867188e+00,-7.411015033721923828e+00,-7.788796901702880859e+00,-7.792437553405761719e+00,-7.776416778564453125e+00,-7.773856163024902344e+00,-7.761469841003417969e+00,-7.758347034454345703e+00,-7.752373695373535156e+00,-7.756664276123046875e+00,-7.747953891754150391e+00,-7.737300872802734375e+00,-7.576903820037841797e+00,-7.575112342834472656e+00,-7.570513248443603516e+00,-7.563050270080566406e+00,-7.556987762451171875e+00,-7.559444904327392578e+00,-7.553953170776367188e+00,-7.547654151916503906e+00,-7.546437740325927734e+00,-7.536244869232177734e+00,-7.534425258636474609e+00,-7.526447772979736328e+00,-7.567528247833251953e+00,-7.513430595397949219e+00,-7.511765003204345703e+00,-7.504568099975585938e+00,-7.487550258636474609e+00,-7.485414981842041016e+00,-7.531623840332031250e+00,-7.552847862243652344e+00,-7.542332649230957031e+00,-7.551596164703369141e+00,-7.438289165496826172e+00,-7.439730644226074219e+00,-7.420389175415039062e+00,-7.555451393127441406e+00,-7.411835193634033203e+00,-7.457604408264160156e+00,-7.381170749664306641e+00,-7.363031864166259766e+00,-7.365879535675048828e+00,-7.359339237213134766e+00,nan,-7.320847034454345703e+00,-7.310158252716064453e+00,-7.311070442199707031e+00,-7.406520366668701172e+00,-7.401970386505126953e+00,-7.446276187896728516e+00,-7.345989227294921875e+00,-7.239982604980468750e+00,-7.233726501464843750e+00,-7.361190319061279297e+00,-6.996165752410888672e+00,-7.195276737213134766e+00,nan,-7.364068031311035156e+00,-7.405050277709960938e+00,-7.367562770843505859e+00,-7.361734390258789062e+00,-7.372625827789306641e+00,-7.361649036407470703e+00,-7.346802711486816406e+00,-7.334275722503662109e+00,-7.319357872009277344e+00,-7.300302028656005859e+00,-7.300474166870117188e+00,-7.311829566955566406e+00,-7.304861545562744141e+00,-7.295928001403808594e+00,-7.265403747558593750e+00,-6.676834583282470703e+00,-7.204390048980712891e+00,-7.206763267517089844e+00,-7.213750839233398438e+00,-7.211144447326660156e+00,-7.210234642028808594e+00,-7.224071502685546875e+00,-7.228692054748535156e+00,-7.220287799835205078e+00,-7.208208084106445312e+00,-7.199348449707031250e+00,-7.187658786773681641e+00,-7.177408695220947266e+00,-7.174167156219482422e+00,-7.153155803680419922e+00,-7.156505584716796875e+00,-7.131665229797363281e+00,-7.137538909912109375e+00,-7.149765014648437500e+00,-7.116508960723876953e+00,-7.065457344055175781e+00,-7.067184925079345703e+00,-6.987924575805664062e+00,-7.056081771850585938e+00,-6.950533866882324219e+00,-6.988690853118896484e+00,-7.067651271820068359e+00,-6.976010322570800781e+00,-7.012554645538330078e+00,-7.028316020965576172e+00,-6.950096130371093750e+00,-6.970705032348632812e+00,-6.918519020080566406e+00,-6.858765125274658203e+00,-6.924256324768066406e+00,-6.963644981384277344e+00,-6.899969100952148438e+00,-6.928351879119873047e+00,-6.926528453826904297e+00,-6.936670780181884766e+00,-6.908760070800781250e+00,-6.904316902160644531e+00,-7.040270805358886719e+00,-6.909908771514892578e+00,-6.900700092315673828e+00,-6.901257038116455078e+00,-6.851335048675537109e+00,-7.060715675354003906e+00,-7.070950031280517578e+00,-7.056657791137695312e+00,-7.093429565429687500e+00,-7.065507411956787109e+00,-7.051546096801757812e+00,-7.026932716369628906e+00,-6.816726207733154297e+00,-6.810279846191406250e+00,-7.002969264984130859e+00,-7.044318199157714844e+00,-6.998961925506591797e+00,-7.002122402191162109e+00,-7.033305168151855469e+00,nan,nan,nan,nan,nan,-7.083214759826660156e+00,nan,-7.076276779174804688e+00,nan,nan,-7.056222915649414062e+00
-8.645757675170898438e+00,-8.600467681884765625e+00,-8.562863349914550781e+00,-8.550903320312500000e+00,-8.555057525634765625e+00,-8.542323112487792969e+00,-8.510222434997558594e+00,-8.464612007141113281e+00,-8.486651420593261719e+00,-8.510139465332031250e+00,-8.470197677612304688e+00,-8.445425033569335938e+00,-8.459872245788574219e+00,-8.452732086181640625e+00,-8.475910186767578125e+00,-8.299596786499023438e+00,-7.834371566772460938e+00,-8.214971542358398438e+00,-7.833560943603515625e+00,-8.121230125427246094e+00,-7.853026866912841797e+00,-7.815376758575439453e+00,-7.816631317138671875e+00,-7.801460266113281250e+00,-7.789675235748291016e+00,-7.790578842163085938e+00,-7.787820339202880859e+00,-7.780710220336914062e+00,-7.774405002593994141e+00,-7.762256622314453125e+00,-7.759909629821777344e+00,-7.596830844879150391e+00,-7.583614826202392578e+00,-7.589305877685546875e+00,-7.264450073242187500e+00,-7.574048042297363281e+00,-7.576083183288574219e+00,-7.570694923400878906e+00,-7.566622734069824219e+00,-7.564466476440429688e+00,-7.553084373474121094e+00,-7.546944618225097656e+00,-7.543531417846679688e+00,-7.538600921630859375e+00,-7.535970211029052734e+00,-7.526142120361328125e+00,-7.522258758544921875e+00,-7.512587070465087891e+00,-7.506342411041259766e+00,-7.499092578887939453e+00,-7.491264820098876953e+00,-7.477330684661865234e+00,-7.528472423553466797e+00,-7.465371131896972656e+00,-7.457223415374755859e+00,-7.444814682006835938e+00,-7.430821418762207031e+00,-7.429100036621093750e+00,-7.414300918579101562e+00,-7.081550598144531250e+00,-7.393037319183349609e+00,-7.389710903167724609e+00,-7.365810394287109375e+00,-7.360282897949218750e+00,-7.354001522064208984e+00,-7.337944984436035156e+00,-7.331629753112792969e+00,-7.318496704101562500e+00,-7.308912277221679688e+00,-7.338276386260986328e+00,-7.283118724822998047e+00,-7.315815448760986328e+00,-7.310847282409667969e+00,-7.233891010284423828e+00,-7.233949184417724609e+00,-7.295279026031494141e+00,nan,-7.194488048553466797e+00,-7.242057800292968750e+00,-7.212761878967285156e+00,nan,-7.142982006072998047e+00,-7.331737041473388672e+00,-7.114890098571777344e+00,-7.318161964416503906e+00,-7.310410022735595703e+00,-7.319689273834228516e+00,-7.315894126892089844e+00,-7.302951335906982422e+00,-7.286989212036132812e+00,-7.275446891784667969e+00,-7.265604496002197266e+00,-6.710740089416503906e+00,-7.234921932220458984e+00,-7.217157363891601562e+00,-7.201088905334472656e+00,-7.176785945892333984e+00,-7.166230201721191406e+00,-7.167961597442626953e+00,-7.178340911865234375e+00,-7.187843799591064453e+00,-7.171050548553466797e+00,-7.160639286041259766e+00,-7.153882026672363281e+00,-7.137894153594970703e+00,-7.125389575958251953e+00,-7.121380329132080078e+00,-7.111623287200927734e+00,-7.117606163024902344e+00,-7.124417781829833984e+00,-7.129237174987792969e+00,-7.097493171691894531e+00,-7.102948665618896484e+00,-7.085648059844970703e+00,-6.998616695404052734e+00,-7.029716968536376953e+00,-6.964156627655029297e+00,-7.023276805877685547e+00,-7.043231964111328125e+00,-7.012000560760498047e+00,-6.981525897979736328e+00,-6.932631492614746094e+00,-6.943830490112304688e+00,-6.959834098815917969e+00,-6.924586296081542969e+00,-6.929164886474609375e+00,-6.899468421936035156e+00,-6.967984676361083984e+00,-6.941532611846923828e+00,-6.938144683837890625e+00,-6.899117946624755859e+00,-7.014882087707519531e+00,-6.918967723846435547e+00,-6.867897987365722656e+00,-6.909852027893066406e+00,-6.887185096740722656e+00,-6.869225978851318359e+00,-6.979817867279052734e+00,-6.874453544616699219e+00,-6.964614868164062500e+00,-6.998910427093505859e+00,-6.936172962188720703e+00,-7.006662368774414062e+00,-7.038496017456054688e+00,-6.986147403717041016e+00,-6.822030067443847656e+00,-6.962177276611328125e+00,-6.781330585479736328e+00,-7.054436206817626953e+00,-7.013277053833007812e+00,-6.968081474304199219e+00,-7.006873130798339844e+00,-7.033401489257812500e+00,-6.988316535949707031e+00,-6.999802112579345703e+00,nan,-6.980652332305908203e+00,nan,nan,-7.102694988250732422e+00,nan,nan,nan,nan,-7.078164100646972656e+00
-8.602519989013671875e+00,-8.563133239746093750e+00,-8.543672561645507812e+00,-8.536507606506347656e+00,-8.188397407531738281e+00,-8.441833496093750000e+00,-8.167016029357910156e+00,-8.462840080261230469e+00,-8.502089500427246094e+00,-8.453971862792968750e+00,-8.414172172546386719e+00,-8.419203758239746094e+00,-8.435495376586914062e+00,-8.469653129577636719e+00,-8.265443801879882812e+00,-8.227314949035644531e+00,-8.227687835693359375e+00,-7.850589752197265625e+00,-7.851890563964843750e+00,-7.834807872772216797e+00,-7.838591575622558594e+00,-7.829965114593505859e+00,-7.824210643768310547e+00,-7.818100929260253906e+00,-7.816760540008544922e+00,-7.619038581848144531e+00,-7.619732856750488281e+00,-7.619915962219238281e+00,-7.611637115478515625e+00,-7.615581512451171875e+00,-7.612112998962402344e+00,-7.603931427001953125e+00,-7.601628303527832031e+00,-7.598843574523925781e+00,-7.266826152801513672e+00,-7.588575839996337891e+00,-7.581337451934814453e+00,-7.574815750122070312e+00,-7.572955608367919922e+00,-7.570447444915771484e+00,-7.565914154052734375e+00,-7.556364059448242188e+00,-7.554861545562744141e+00,-7.543869972229003906e+00,-7.539500236511230469e+00,-7.533121585845947266e+00,-7.526413440704345703e+00,-7.517977237701416016e+00,-7.514222145080566406e+00,-7.504397869110107422e+00,-7.500031471252441406e+00,-7.492510795593261719e+00,-7.484866619110107422e+00,-7.471621513366699219e+00,-7.465192317962646484e+00,-7.457516193389892578e+00,-7.444886684417724609e+00,-7.428530693054199219e+00,-7.424270153045654297e+00,-7.413845539093017578e+00,-7.403377532958984375e+00,-7.386018753051757812e+00,-7.379026889801025391e+00,-7.363172531127929688e+00,-7.360830307006835938e+00,-7.349955558776855469e+00,-7.333692073822021484e+00,-7.326119899749755859e+00,-7.309750080108642578e+00,-7.301875114440917969e+00,-7.295571804046630859e+00,-7.285098552703857422e+00,-7.267598628997802734e+00,-7.260767936706542969e+00,-7.239739894866943359e+00,-7.232023715972900391e+00,-7.220058441162109375e+00,-7.195971012115478516e+00,-7.190125465393066406e+00,-7.180220603942871094e+00,-7.168010234832763672e+00,-7.147694587707519531e+00,-7.140786647796630859e+00,-7.291262149810791016e+00,-7.107481956481933594e+00,-7.101678371429443359e+00,-7.091261863708496094e+00,-7.084258556365966797e+00,-7.055727958679199219e+00,-7.054716587066650391e+00,-7.036505699157714844e+00,-7.019737243652343750e+00,-7.004506587982177734e+00,-6.999907493591308594e+00,-7.210018634796142578e+00,-7.163601875305175781e+00,-6.954953670501708984e+00,-7.129013538360595703e+00,-7.136535644531250000e+00,-7.139642238616943359e+00,-7.135663509368896484e+00,-7.130449295043945312e+00,-7.121016025543212891e+00,-7.127797603607177734e+00,-7.103604793548583984e+00,-7.116837501525878906e+00,-7.104722976684570312e+00,-7.101607322692871094e+00,-7.086229801177978516e+00,-7.070033550262451172e+00,-7.066703796386718750e+00,-7.053840637207031250e+00,-7.050302982330322266e+00,-7.013904571533203125e+00,-6.980621814727783203e+00,-6.989726543426513672e+00,-6.958912849426269531e+00,-6.960474491119384766e+00,-6.951038360595703125e+00,-6.929945468902587891e+00,-6.920055389404296875e+00,-6.941456794738769531e+00,-6.956365108489990234e+00,-6.904150485992431641e+00,-6.953453063964843750e+00,-6.900814056396484375e+00,-6.826776027679443359e+00,-6.929053306579589844e+00,-6.872681140899658203e+00,-6.887755870819091797e+00,-6.841627120971679688e+00,-6.938398838043212891e+00,-6.910907268524169922e+00,-6.974121570587158203e+00,-6.858812808990478516e+00,-6.886348724365234375e+00,-6.918460369110107422e+00,-6.834290981292724609e+00,-6.831839561462402344e+00,-6.821485042572021484e+00,-6.920320034027099609e+00,-6.945291519165039062e+00,-6.757583618164062500e+00,-6.832864284515380859e+00,-6.941510200500488281e+00,-6.951116561889648438e+00,-6.932151317596435547e+00,-6.936455249786376953e+00,-6.697919845581054688e+00,-6.936090469360351562e+00,-7.005553722381591797e+00,-6.759144306182861328e+00,-7.026990890502929688e+00,-6.977586269378662109e+00,-7.015756130218505859e+00,nan,-7.010787010192871094e+00,nan,nan,-6.990239620208740234e+00,nan,nan,nan,nan,nan
-8.561082839965820312e+00,-8.556724548339843750e+00,-8.526639938354492188e+00,-8.484281539916992188e+00,-8.426345825195312500e+00,-8.404149055480957031e+00,-8.429534912109375000e+00,-8.484725952148437500e+00,-8.439732551574707031e+00,-8.397506713867187500e+00,-8.378536224365234375e+00,-8.417919158935546875e+00,-7.897848129272460938e+00,-7.891419410705566406e+00,-7.659327030181884766e+00,-7.657678604125976562e+00,-7.882116317749023438e+00,-7.870483875274658203e+00,-7.435779571533203125e+00,-7.437622547149658203e+00,-7.849039554595947266e+00,-7.838624954223632812e+00,-7.633096218109130859e+00,-7.636823177337646484e+00,-7.633743286132812500e+00,-7.632388114929199219e+00,-7.629026412963867188e+00,-7.633029460906982422e+00,-7.626204490661621094e+00,-7.621390819549560547e+00,-7.442659854888916016e+00,-7.438863277435302734e+00,-7.606084823608398438e+00,-7.438758850097656250e+00,-7.436246395111083984e+00,-7.268233776092529297e+00,-7.433487892150878906e+00,-7.427856445312500000e+00,-7.426796913146972656e+00,-7.421442508697509766e+00,-7.419171810150146484e+00,-7.415218353271484375e+00,-7.409877300262451172e+00,-7.402666091918945312e+00,-7.401437282562255859e+00,-7.392946720123291016e+00,-7.384469509124755859e+00,-7.378398418426513672e+00,-7.449860572814941406e+00,-7.206998348236083984e+00,-7.354410171508789062e+00,-7.343611717224121094e+00,-7.336838722229003906e+00,-7.330574512481689453e+00,-7.310633659362792969e+00,-7.308725357055664062e+00,-7.296195983886718750e+00,-7.282883644104003906e+00,-7.270821571350097656e+00,-7.260144710540771484e+00,-7.248105049133300781e+00,-7.235280513763427734e+00,-7.216499328613281250e+00,-7.211060047149658203e+00,-7.194933414459228516e+00,-7.184394836425781250e+00,-7.157497882843017578e+00,-7.158155918121337891e+00,-7.240575790405273438e+00,-7.253068447113037109e+00,-7.292964458465576172e+00,-7.290003776550292969e+00,-7.279657363891601562e+00,-7.263308525085449219e+00,-7.254392623901367188e+00,nan,-7.221631050109863281e+00,-7.221012115478515625e+00,-7.207886219024658203e+00,-7.184987068176269531e+00,-7.174371242523193359e+00,-7.162255764007568359e+00,-7.149727821350097656e+00,-7.131797790527343750e+00,-7.114692687988281250e+00,-6.864927291870117188e+00,-6.839611530303955078e+00,-7.078984260559082031e+00,-7.063248157501220703e+00,-7.053288936614990234e+00,-7.040216445922851562e+00,-7.221976280212402344e+00,-7.225124835968017578e+00,-6.993211269378662109e+00,-6.982615947723388672e+00,-6.974905014038085938e+00,-6.957303047180175781e+00,-6.946332931518554688e+00,-6.939354896545410156e+00,-7.113864421844482422e+00,-7.093893527984619141e+00,-7.121379852294921875e+00,-7.125866889953613281e+00,-7.111306190490722656e+00,-7.098971366882324219e+00,-7.083142280578613281e+00,-7.075096130371093750e+00,-7.058003425598144531e+00,-7.041000843048095703e+00,-7.032308578491210938e+00,-7.013716697692871094e+00,-7.004732131958007812e+00,-7.012772083282470703e+00,-6.998147487640380859e+00,-6.982650756835937500e+00,-7.017347812652587891e+00,-6.928209781646728516e+00,-6.906973838806152344e+00,-6.862367630004882812e+00,-6.907616138458251953e+00,-6.862936973571777344e+00,-6.914684772491455078e+00,-6.798930644989013672e+00,-6.882400512695312500e+00,-6.911904811859130859e+00,-6.857331752777099609e+00,-6.884946823120117188e+00,-6.922035217285156250e+00,-6.868351459503173828e+00,-6.901403903961181641e+00,-6.845993995666503906e+00,-6.856877803802490234e+00,-6.904621601104736328e+00,-6.787793159484863281e+00,-6.880216598510742188e+00,-6.925781726837158203e+00,-6.936086177825927734e+00,-6.946289062500000000e+00,-6.853592395782470703e+00,-6.828693866729736328e+00,-6.818089008331298828e+00,-6.812245368957519531e+00,nan,nan,-6.831386566162109375e+00,-6.899067401885986328e+00,-6.882608413696289062e+00,-6.818881988525390625e+00,-6.895350933074951172e+00,-6.886451721191406250e+00,-6.938753128051757812e+00,-6.747324943542480469e+00,-6.943680286407470703e+00,-6.860189437866210938e+00,nan,-6.958961009979248047e+00,-7.027683258056640625e+00,nan,nan,-7.004673957824707031e+00,nan,nan,nan,nan,-6.970874309539794922e+00
-8.543245315551757812e+00,-7.681989669799804688e+00,-8.468602180480957031e+00,-8.419723510742187500e+00,-8.387206077575683594e+00,-8.443928718566894531e+00,-8.473860740661621094e+00,-8.432292938232421875e+00,-8.396475791931152344e+00,-8.371838569641113281e+00,-7.922902584075927734e+00,-7.914415359497070312e+00,-7.918433666229248047e+00,-7.906522274017333984e+00,-7.670728206634521484e+00,-7.660739421844482422e+00,-7.890234947204589844e+00,-7.219919204711914062e+00,-7.443104743957519531e+00,-7.228928089141845703e+00,-7.661655426025390625e+00,-7.658593654632568359e+00,-7.655445098876953125e+00,-7.652682781219482422e+00,-7.653267383575439453e+00,-7.450143337249755859e+00,-7.448327541351318359e+00,-7.450731277465820312e+00,-7.451430320739746094e+00,-7.451013088226318359e+00,-7.452833652496337891e+00,-7.448601722717285156e+00,-7.446366310119628906e+00,-7.272115707397460938e+00,-7.441003799438476562e+00,-7.436842441558837891e+00,-7.269531250000000000e+00,-7.268478870391845703e+00,-7.431900024414062500e+00,-7.264113426208496094e+00,-7.260507583618164062e+00,-7.416986942291259766e+00,-7.413789272308349609e+00,-7.249532699584960938e+00,-7.400135993957519531e+00,-7.395300388336181641e+00,-7.389802455902099609e+00,-7.381332874298095703e+00,-7.375437259674072266e+00,-7.366682529449462891e+00,-7.194745540618896484e+00,-7.188404560089111328e+00,-7.177059173583984375e+00,-7.329354286193847656e+00,-7.153260231018066406e+00,-7.304728984832763672e+00,-7.294907093048095703e+00,-7.291107654571533203e+00,-7.274941921234130859e+00,-7.266377925872802734e+00,-7.248828411102294922e+00,-7.238972663879394531e+00,-7.228157520294189453e+00,-7.212927341461181641e+00,-7.201294898986816406e+00,-7.188042163848876953e+00,-7.173739910125732422e+00,-7.157630443572998047e+00,-7.151125907897949219e+00,-7.197846889495849609e+00,-7.227466583251953125e+00,-7.231223106384277344e+00,-7.221699237823486328e+00,-7.201022148132324219e+00,-7.198541164398193359e+00,-7.155107975006103516e+00,-7.137334346771240234e+00,-7.136529445648193359e+00,-7.140532970428466797e+00,-7.114062309265136719e+00,-7.162892818450927734e+00,-7.098267555236816406e+00,-7.154992103576660156e+00,-7.093198776245117188e+00,-7.275092124938964844e+00,-7.258282184600830078e+00,-7.264177322387695312e+00,-7.258778572082519531e+00,-7.210876464843750000e+00,-7.188615322113037109e+00,-7.205781936645507812e+00,-6.754684925079345703e+00,-7.195608139038085938e+00,-7.168145179748535156e+00,-7.129384517669677734e+00,-7.109106063842773438e+00,-7.107048988342285156e+00,-7.096747875213623047e+00,-7.100276947021484375e+00,-6.930851936340332031e+00,-6.917119026184082031e+00,-7.080165863037109375e+00,-7.066600322723388672e+00,-7.084593296051025391e+00,-7.061083793640136719e+00,-7.043618202209472656e+00,nan,-6.820514678955078125e+00,-7.054613113403320312e+00,-7.042259693145751953e+00,-6.905303001403808594e+00,-7.005657672882080078e+00,-6.906059741973876953e+00,-6.936684131622314453e+00,-6.883492946624755859e+00,-6.888846397399902344e+00,-6.907853603363037109e+00,-6.900784969329833984e+00,-6.897327423095703125e+00,-6.976800441741943359e+00,-6.890755176544189453e+00,-6.811278820037841797e+00,-6.844682693481445312e+00,-6.916577816009521484e+00,-6.949912071228027344e+00,-6.950991630554199219e+00,-6.840776920318603516e+00,-6.829423904418945312e+00,-6.802468776702880859e+00,-6.801328659057617188e+00,-6.788198947906494141e+00,-6.840275287628173828e+00,-6.803705692291259766e+00,-6.772648811340332031e+00,-6.872306346893310547e+00,-6.921312332153320312e+00,-6.699738979339599609e+00,-6.872483730316162109e+00,-6.862227439880371094e+00,-6.847437858581542969e+00,-6.774379730224609375e+00,-6.883843898773193359e+00,-6.931862831115722656e+00,-6.834395885467529297e+00,-6.914528369903564453e+00,nan,-6.803225517272949219e+00,-6.809968948364257812e+00,nan,nan,nan,nan,-6.945630550384521484e+00,-6.867068290710449219e+00,-6.917973041534423828e+00,nan,nan,-6.923398971557617188e+00,-6.892778873443603516e+00,-6.951303482055664062e+00,-6.914197444915771484e+00,-6.997742652893066406e+00,nan,nan,-6.983451366424560547e+00
-8.508667945861816406e+00,-8.456414222717285156e+00,-7.982883930206298828e+00,-8.416076660156250000e+00,-8.427528381347656250e+00,-7.687967777252197266e+00,-7.961936473846435547e+00,-7.961672782897949219e+00,-7.956092834472656250e+00,-8.378961563110351562e+00,-7.685748577117919922e+00,-7.690931797027587891e+00,-7.685282707214355469e+00,-7.686497688293457031e+00,-7.683446884155273438e+00,-7.683029174804687500e+00,-7.679074764251708984e+00,-7.449160099029541016e+00,-7.672802448272705078e+00,-7.453269481658935547e+00,-7.457681179046630859e+00,-7.661571502685546875e+00,-7.458189010620117188e+00,-7.458068847656250000e+00,-7.460293769836425781e+00,-7.460295677185058594e+00,-7.460338115692138672e+00,-7.461318016052246094e+00,-7.456377029418945312e+00,-7.454493045806884766e+00,-7.271978378295898438e+00,-7.272665500640869141e+00,-7.273924350738525391e+00,-7.095485687255859375e+00,-7.273543834686279297e+00,-7.097471714019775391e+00,-7.270928859710693359e+00,-7.270588397979736328e+00,-7.266845226287841797e+00,-7.264600753784179688e+00,-7.261528968811035156e+00,-7.257738590240478516e+00,-7.253719329833984375e+00,-7.248066425323486328e+00,-7.242266654968261719e+00,-7.235884666442871094e+00,-7.229772567749023438e+00,-7.222360610961914062e+00,-7.216513156890869141e+00,-7.204962730407714844e+00,-7.199613571166992188e+00,-7.185840129852294922e+00,-7.177875041961669922e+00,-7.164110660552978516e+00,-7.158770084381103516e+00,-7.142468929290771484e+00,-7.133153915405273438e+00,-7.123280525207519531e+00,-7.103273868560791016e+00,-7.091763973236083984e+00,-7.080582618713378906e+00,-7.062714099884033203e+00,-7.045021057128906250e+00,-7.033714771270751953e+00,-7.020196437835693359e+00,-7.110678195953369141e+00,-6.986946105957031250e+00,-7.164932727813720703e+00,-7.146237850189208984e+00,-7.139530181884765625e+00,-7.128354072570800781e+00,-7.136082649230957031e+00,-7.158015727996826172e+00,-7.076358795166015625e+00,-7.067250251770019531e+00,-7.102232933044433594e+00,-7.102632999420166016e+00,-7.117784500122070312e+00,-7.069676399230957031e+00,-7.045816421508789062e+00,-7.064837932586669922e+00,-7.122159481048583984e+00,-7.179662227630615234e+00,-6.971568584442138672e+00,-7.052854537963867188e+00,-7.228735446929931641e+00,-7.220786571502685547e+00,-7.206301212310791016e+00,-7.219372272491455078e+00,-7.177541255950927734e+00,-6.783263206481933594e+00,-7.147584438323974609e+00,-6.755522727966308594e+00,-7.144656181335449219e+00,-7.116808891296386719e+00,-7.074962139129638672e+00,-7.038363456726074219e+00,-7.041296958923339844e+00,-7.037496566772460938e+00,-7.046958923339843750e+00,-7.038673400878906250e+00,-7.040038108825683594e+00,-7.031383991241455078e+00,-6.887049674987792969e+00,-6.874706745147705078e+00,-6.872044563293457031e+00,-6.856648921966552734e+00,-6.837979316711425781e+00,-6.820017337799072266e+00,-6.805832386016845703e+00,-6.797550201416015625e+00,-6.787824153900146484e+00,-6.776997089385986328e+00,-6.884092330932617188e+00,-6.906484603881835938e+00,-6.884386539459228516e+00,-6.876906871795654297e+00,-6.917187213897705078e+00,-6.913955211639404297e+00,-6.914839267730712891e+00,-6.862176895141601562e+00,-6.947290897369384766e+00,-6.930110454559326172e+00,-6.854515552520751953e+00,-6.895981788635253906e+00,-6.794547557830810547e+00,-6.783962249755859375e+00,-6.889328479766845703e+00,-6.923424243927001953e+00,-6.830128669738769531e+00,-6.700411796569824219e+00,-6.819429874420166016e+00,-6.863351821899414062e+00,-6.802972793579101562e+00,-6.925759315490722656e+00,-6.890158176422119141e+00,-6.853539466857910156e+00,-6.854170799255371094e+00,-6.917335987091064453e+00,-6.601143360137939453e+00,-6.820703029632568359e+00,-6.762564182281494141e+00,-6.919638633728027344e+00,nan,-6.862723350524902344e+00,nan,nan,-6.748172760009765625e+00,nan,nan,nan,nan,nan,nan,nan,nan,nan,nan,nan,nan,nan,nan,nan,nan,nan
-8.433650016784667969e+00,-8.407026290893554688e+00,-7.992528915405273438e+00,-7.987309932708740234e+00,-8.403666496276855469e+00,-8.414755821228027344e+00,-8.394374847412109375e+00,-7.964839458465576172e+00,-7.700639724731445312e+00,-7.706263542175292969e+00,-7.704496860504150391e+00,-7.699209213256835938e+00,-7.694742202758789062e+00,-7.694135665893554688e+00,-7.696255683898925781e+00,-7.690885066986083984e+00,-7.688979148864746094e+00,-7.460683822631835938e+00,-7.460776805877685547e+00,-7.461316585540771484e+00,-7.460635662078857422e+00,-7.468598365783691406e+00,-7.253885269165039062e+00,-7.465175151824951172e+00,-7.463622093200683594e+00,-7.464391708374023438e+00,-7.465048789978027344e+00,-7.463356494903564453e+00,-7.280826568603515625e+00,-7.274293422698974609e+00,-7.273464202880859375e+00,-7.087050437927246094e+00,-7.274900436401367188e+00,-7.275043964385986328e+00,-7.092741966247558594e+00,-7.274221420288085938e+00,-6.915654182434082031e+00,-7.271233558654785156e+00,-7.268550395965576172e+00,-7.094316482543945312e+00,-7.089476585388183594e+00,-7.087123870849609375e+00,-7.084937095642089844e+00,-7.077602386474609375e+00,-7.072521686553955078e+00,-7.065226078033447266e+00,-7.060912609100341797e+00,-7.054065227508544922e+00,-7.152812004089355469e+00,-7.204566955566406250e+00,-7.028646469116210938e+00,-7.131258010864257812e+00,-7.002527236938476562e+00,-6.991592407226562500e+00,-7.039081573486328125e+00,-7.140489101409912109e+00,-6.959832191467285156e+00,-7.120583534240722656e+00,-7.107861518859863281e+00,-7.093203544616699219e+00,-7.079119205474853516e+00,-7.066721916198730469e+00,-7.050066471099853516e+00,-7.035772800445556641e+00,-7.016738891601562500e+00,-7.064730167388916016e+00,-6.985278606414794922e+00,-6.974885463714599609e+00,-7.096200466156005859e+00,-7.069540977478027344e+00,-7.127929687500000000e+00,-7.116987705230712891e+00,-7.110008239746093750e+00,-7.077919006347656250e+00,-7.066854476928710938e+00,-7.060093402862548828e+00,-7.068825244903564453e+00,-7.076844692230224609e+00,-6.999541282653808594e+00,-6.996043682098388672e+00,-7.189259529113769531e+00,nan,-7.013738632202148438e+00,-7.173229217529296875e+00,-7.142677307128906250e+00,-6.964554309844970703e+00,-7.222872734069824219e+00,-6.847495555877685547e+00,nan,-7.174730300903320312e+00,-7.135607719421386719e+00,-7.092795372009277344e+00,-7.084023475646972656e+00,-7.093788146972656250e+00,-7.082504749298095703e+00,-7.049140930175781250e+00,-7.006222248077392578e+00,-6.990419387817382812e+00,-6.978912353515625000e+00,-6.996008872985839844e+00,-7.009907245635986328e+00,-6.991695404052734375e+00,-6.967238426208496094e+00,-6.954783439636230469e+00,-6.956018447875976562e+00,-6.976405143737792969e+00,-6.978820800781250000e+00,-6.971117019653320312e+00,-6.995255470275878906e+00,-6.916629791259765625e+00,-6.953876495361328125e+00,-6.939279556274414062e+00,-6.773990631103515625e+00,-6.769438743591308594e+00,-6.885584831237792969e+00,-6.874416828155517578e+00,-6.794464588165283203e+00,-6.802299022674560547e+00,-6.809681892395019531e+00,-6.909867286682128906e+00,-6.858456134796142578e+00,-6.778877735137939453e+00,-6.888974666595458984e+00,-6.795772552490234375e+00,-6.777055263519287109e+00,-6.887925148010253906e+00,-6.923269271850585938e+00,-6.921128749847412109e+00,-6.907778263092041016e+00,-6.803529739379882812e+00,-6.766786575317382812e+00,-6.850476741790771484e+00,-6.831085205078125000e+00,-6.677474498748779297e+00,-6.876483440399169922e+00,-6.897146701812744141e+00,-6.911195755004882812e+00,-6.851789951324462891e+00,-6.772914886474609375e+00,-6.627144336700439453e+00,-6.792791366577148438e+00,-6.838911056518554688e+00,nan,-6.724827289581298828e+00,-6.834737777709960938e+00,-6.654282569885253906e+00,nan,nan,nan,-6.543302536010742188e+00,nan,-6.805833816528320312e+00,nan,nan,nan,nan,nan,nan,nan,nan,nan,nan,nan,nan,nan
-8.408561706542968750e+00,-8.394649505615234375e+00,-8.373071670532226562e+00,-8.361728668212890625e+00,-8.397076606750488281e+00,-8.394172668457031250e+00,-8.385389328002929688e+00,-8.377720832824707031e+00,-7.711667537689208984e+00,-7.714990615844726562e+00,-7.716593742370605469e+00,-7.716329574584960938e+00,-7.712856769561767578e+00,-7.458853721618652344e+00,-7.706731796264648438e+00,-7.994243621826171875e+00,-7.467821121215820312e+00,-7.938446521759033203e+00,-7.466840267181396484e+00,-7.472823143005371094e+00,-7.471246719360351562e+00,-7.470441818237304688e+00,-7.256608963012695312e+00,-7.264311313629150391e+00,-7.263248443603515625e+00,-7.418216705322265625e+00,-7.365644454956054688e+00,-7.271989822387695312e+00,-7.274013996124267578e+00,-7.275858402252197266e+00,-7.105983257293701172e+00,-7.084324359893798828e+00,-7.277157306671142578e+00,-7.277918338775634766e+00,-7.277272224426269531e+00,-7.178478240966796875e+00,-7.273853778839111328e+00,-7.271778106689453125e+00,-7.270977497100830078e+00,-7.254237174987792969e+00,-7.085241317749023438e+00,-7.083566665649414062e+00,-7.078573703765869141e+00,-7.072425842285156250e+00,-7.067231178283691406e+00,-7.076517581939697266e+00,-7.055314064025878906e+00,-7.049680233001708984e+00,-7.154530525207519531e+00,-7.153908729553222656e+00,-7.041147232055664062e+00,-7.125838756561279297e+00,-7.160476684570312500e+00,-7.009826183319091797e+00,-7.001965522766113281e+00,-7.101006507873535156e+00,-7.047572135925292969e+00,-7.117816925048828125e+00,-7.111052513122558594e+00,-7.097020626068115234e+00,-7.084124088287353516e+00,-6.995332717895507812e+00,-6.855157852172851562e+00,-7.030114173889160156e+00,-7.027383327484130859e+00,-7.069432735443115234e+00,-6.987122535705566406e+00,-7.098564147949218750e+00,-7.092879295349121094e+00,-7.074555873870849609e+00,-7.065338611602783203e+00,-7.111702919006347656e+00,-7.105370044708251953e+00,-7.095213890075683594e+00,-7.076931953430175781e+00,-7.065720081329345703e+00,-7.049054622650146484e+00,-7.031129360198974609e+00,-7.014000415802001953e+00,-6.995198726654052734e+00,-6.986097335815429688e+00,-6.973855018615722656e+00,-7.153184413909912109e+00,-6.971991539001464844e+00,-7.123091697692871094e+00,-6.897812366485595703e+00,-6.892400264739990234e+00,-7.170448780059814453e+00,-7.127587795257568359e+00,-6.822607994079589844e+00,-7.118314266204833984e+00,-7.095500469207763672e+00,-7.041023731231689453e+00,-7.043678283691406250e+00,-7.038391113281250000e+00,-7.025342941284179688e+00,-7.002881050109863281e+00,-6.960992813110351562e+00,-6.940234184265136719e+00,-6.941473484039306641e+00,-6.936954498291015625e+00,-6.940574645996093750e+00,-6.938426971435546875e+00,-6.904738903045654297e+00,-6.890314579010009766e+00,-6.892491340637207031e+00,-6.930006027221679688e+00,-6.923382759094238281e+00,-6.937992572784423828e+00,-6.906236171722412109e+00,-6.757457733154296875e+00,-6.918145179748535156e+00,-6.904193878173828125e+00,-6.873057842254638672e+00,-6.880996227264404297e+00,-6.888860225677490234e+00,-6.806423187255859375e+00,-6.818803310394287109e+00,-6.835167407989501953e+00,-6.828715801239013672e+00,-6.760260581970214844e+00,-6.919143676757812500e+00,-6.771903038024902344e+00,-6.662816047668457031e+00,-6.712016582489013672e+00,-6.786399841308593750e+00,-6.810997962951660156e+00,-6.697951793670654297e+00,-6.731784343719482422e+00,-6.892394542694091797e+00,-6.856626510620117188e+00,-6.887561798095703125e+00,-6.870501995086669922e+00,-6.741930007934570312e+00,-6.716341495513916016e+00,-6.817128181457519531e+00,-6.778117656707763672e+00,-6.877953529357910156e+00,-6.882646083831787109e+00,-6.810510158538818359e+00,-6.892773628234863281e+00,-6.891866683959960938e+00,-6.673460006713867188e+00,-6.747723579406738281e+00,-6.625929832458496094e+00,-6.696188926696777344e+00,-6.688622951507568359e+00,nan,nan,nan,nan,nan,-6.738689422607421875e+00,-6.800416469573974609e+00,nan,nan,nan,nan,nan,nan,nan,nan,nan,nan,nan
-7.737580776214599609e+00,-8.347641944885253906e+00,-8.341157913208007812e+00,-8.376478195190429688e+00,-8.392594337463378906e+00,-7.449800491333007812e+00,-7.728218555450439453e+00,-8.178011894226074219e+00,-7.725378036499023438e+00,-7.723939418792724609e+00,-7.706327438354492188e+00,-7.720848083496093750e+00,-7.467074394226074219e+00,-7.631612300872802734e+00,nan,-7.478512763977050781e+00,-7.258340835571289062e+00,-7.489937305450439453e+00,-7.480944156646728516e+00,-7.478157997131347656e+00,-7.468790531158447266e+00,-7.464260101318359375e+00,-7.430542469024658203e+00,-7.265823364257812500e+00,-7.265120983123779297e+00,-7.361732482910156250e+00,-7.338195323944091797e+00,-7.275616645812988281e+00,-7.279113769531250000e+00,-7.278226852416992188e+00,-7.080321788787841797e+00,-7.279426097869873047e+00,-7.279046535491943359e+00,-7.278536796569824219e+00,-7.264453887939453125e+00,-7.291304111480712891e+00,-7.276120662689208984e+00,-7.273960113525390625e+00,-7.271703243255615234e+00,-7.235125541687011719e+00,-7.081516742706298828e+00,-7.078883171081542969e+00,-7.072856903076171875e+00,-7.069180488586425781e+00,-7.064304828643798828e+00,-7.057474613189697266e+00,-7.052445411682128906e+00,-7.045092105865478516e+00,-7.140556812286376953e+00,-7.136257648468017578e+00,-7.082984447479248047e+00,-7.123411178588867188e+00,-7.137732028961181641e+00,-7.158429622650146484e+00,-6.978295326232910156e+00,-7.051485538482666016e+00,-7.110284328460693359e+00,-7.071702957153320312e+00,-7.105191707611083984e+00,-7.102555751800537109e+00,-7.080861091613769531e+00,-7.028983592987060547e+00,-6.857347965240478516e+00,-6.969352722167968750e+00,-7.025978088378906250e+00,-7.049652099609375000e+00,-6.991231918334960938e+00,-7.057960510253906250e+00,-7.092874050140380859e+00,-7.085383415222167969e+00,-7.074498176574707031e+00,-7.061785697937011719e+00,-7.057405471801757812e+00,-7.096368312835693359e+00,-7.079945564270019531e+00,-7.071334362030029297e+00,-7.047774314880371094e+00,-7.037569999694824219e+00,-7.021166324615478516e+00,-7.009160518646240234e+00,-6.988183021545410156e+00,-6.974347591400146484e+00,-6.961567878723144531e+00,-6.937188148498535156e+00,-6.921313762664794922e+00,-6.905646324157714844e+00,-6.884174346923828125e+00,-6.869157791137695312e+00,-6.861124992370605469e+00,-7.006273746490478516e+00,-7.081346035003662109e+00,-7.066815853118896484e+00,-6.787573337554931641e+00,-6.762008666992187500e+00,-6.753346920013427734e+00,-6.421398162841796875e+00,-6.727197647094726562e+00,-6.687584400177001953e+00,-6.684666633605957031e+00,-6.900721549987792969e+00,-6.904189109802246094e+00,-6.911720752716064453e+00,-6.893812179565429688e+00,-6.928845405578613281e+00,-6.883023262023925781e+00,-6.838603019714355469e+00,-6.818598747253417969e+00,-6.846081733703613281e+00,-6.841128349304199219e+00,-6.861474037170410156e+00,-6.892661094665527344e+00,-6.881790161132812500e+00,-6.872591972351074219e+00,-6.888906955718994141e+00,-6.868832588195800781e+00,-6.679265022277832031e+00,-6.681087493896484375e+00,-6.757048130035400391e+00,-6.737060546875000000e+00,-6.779482841491699219e+00,-6.801698684692382812e+00,-6.814205169677734375e+00,-6.839425563812255859e+00,-6.702813148498535156e+00,-6.669347286224365234e+00,-6.876067161560058594e+00,-6.833721160888671875e+00,-6.837530612945556641e+00,-6.758675575256347656e+00,-6.709505558013916016e+00,-6.775011539459228516e+00,-6.420778751373291016e+00,-6.824409008026123047e+00,-6.858159065246582031e+00,-6.813141822814941406e+00,-6.730832099914550781e+00,-6.719588756561279297e+00,-6.771598815917968750e+00,nan,-6.816696643829345703e+00,-6.819593906402587891e+00,nan,-6.858913421630859375e+00,nan,-6.866063594818115234e+00,nan,-6.778054714202880859e+00,-6.675583839416503906e+00,nan,-6.690542221069335938e+00,-6.741471767425537109e+00,nan,nan,nan,nan,nan,nan,nan,nan,nan,nan,nan,nan,nan,nan
-8.356433868408203125e+00,-8.342122077941894531e+00,-8.356830596923828125e+00,-8.375430107116699219e+00,-8.382433891296386719e+00,-8.173611640930175781e+00,-8.159964561462402344e+00,-7.468123912811279297e+00,-8.088178634643554688e+00,-8.113085746765136719e+00,-8.101824760437011719e+00,-7.481610774993896484e+00,-7.481605529785156250e+00,-7.592197418212890625e+00,-7.484566211700439453e+00,-7.651890277862548828e+00,-7.241122245788574219e+00,-7.488273620605468750e+00,-7.485872268676757812e+00,-7.481260776519775391e+00,-7.473576545715332031e+00,-7.449461936950683594e+00,-7.310928821563720703e+00,-7.268946170806884766e+00,-7.277656555175781250e+00,-7.366883277893066406e+00,-7.277627944946289062e+00,-7.280633449554443359e+00,-7.280214309692382812e+00,-7.278964042663574219e+00,-7.077817916870117188e+00,-7.281826496124267578e+00,-7.281635284423828125e+00,-7.261648178100585938e+00,-7.207894325256347656e+00,-7.278990268707275391e+00,-7.276821613311767578e+00,-7.275929927825927734e+00,-7.224920749664306641e+00,-7.096541404724121094e+00,-7.076144218444824219e+00,-7.072362899780273438e+00,-7.068911075592041016e+00,-7.064884185791015625e+00,-7.059500694274902344e+00,-6.870769977569580078e+00,-7.045882701873779297e+00,-7.041347026824951172e+00,-7.130378246307373047e+00,-6.833219051361083984e+00,-7.086917877197265625e+00,-7.008352279663085938e+00,-7.104495525360107422e+00,-7.100995063781738281e+00,-6.991590023040771484e+00,-7.098653316497802734e+00,-7.093920230865478516e+00,-7.045218944549560547e+00,-6.907622337341308594e+00,-6.899682998657226562e+00,-7.072228431701660156e+00,-7.018829822540283203e+00,-6.946600914001464844e+00,-6.926310062408447266e+00,-7.062345981597900391e+00,-6.798063278198242188e+00,nan,-6.993910789489746094e+00,-7.060540676116943359e+00,-7.088595390319824219e+00,-7.070795059204101562e+00,-7.080578804016113281e+00,-7.051504611968994141e+00,-7.046955108642578125e+00,-7.088387966156005859e+00,-7.074724197387695312e+00,-7.056318759918212891e+00,-7.030399322509765625e+00,-7.007059097290039062e+00,-6.977080821990966797e+00,-6.993269920349121094e+00,-6.961467266082763672e+00,-6.962898731231689453e+00,-6.948819637298583984e+00,-6.938793182373046875e+00,-6.914037227630615234e+00,-6.864861488342285156e+00,-6.870318412780761719e+00,-6.863628387451171875e+00,-6.844824314117431641e+00,-6.824572563171386719e+00,-7.032408714294433594e+00,-7.011232376098632812e+00,-6.987366676330566406e+00,-6.960383892059326172e+00,-6.743976593017578125e+00,-6.936035156250000000e+00,-6.948025226593017578e+00,-6.905287742614746094e+00,-6.841895580291748047e+00,-6.863950252532958984e+00,-6.870488166809082031e+00,-6.886262893676757812e+00,-6.879056930541992188e+00,-6.925480842590332031e+00,-6.919108867645263672e+00,-6.797962188720703125e+00,-6.777160644531250000e+00,-6.756297111511230469e+00,-6.802583694458007812e+00,-6.841600894927978516e+00,-6.809725761413574219e+00,-6.826084136962890625e+00,-6.839743137359619141e+00,-6.845874786376953125e+00,-6.846832275390625000e+00,-6.769623756408691406e+00,-6.745055675506591797e+00,-6.651326179504394531e+00,-6.745685577392578125e+00,-6.740256786346435547e+00,-6.667299270629882812e+00,-6.784128189086914062e+00,-6.664927482604980469e+00,-6.663202285766601562e+00,-6.751448631286621094e+00,-6.778325080871582031e+00,-6.899878501892089844e+00,-6.764803409576416016e+00,-6.839001178741455078e+00,-6.635859966278076172e+00,-6.777155399322509766e+00,-6.645391464233398438e+00,-6.767256259918212891e+00,-6.852960586547851562e+00,-6.840767860412597656e+00,-6.613204956054687500e+00,-6.813081741333007812e+00,nan,nan,nan,nan,nan,nan,nan,nan,nan,nan,-6.648034572601318359e+00,-6.649810791015625000e+00,-6.687257766723632812e+00,nan,nan,nan,nan,nan,nan,nan,nan,nan,nan,nan,nan,nan,nan
-8.321872711181640625e+00,-8.338799476623535156e+00,-8.364487648010253906e+00,-8.384463310241699219e+00,-8.154217720031738281e+00,-7.185522079467773438e+00,-7.479230403900146484e+00,-7.473683834075927734e+00,-8.174512863159179688e+00,-7.208567142486572266e+00,-7.488415718078613281e+00,-7.221805095672607422e+00,-7.227305412292480469e+00,-7.490102767944335938e+00,-7.604656219482421875e+00,-7.490073680877685547e+00,-7.491698741912841797e+00,-7.503960609436035156e+00,-7.452212333679199219e+00,-7.437897682189941406e+00,-7.435363769531250000e+00,-7.399826526641845703e+00,-7.042542934417724609e+00,-7.045559406280517578e+00,-7.050251483917236328e+00,-7.277203083038330078e+00,-7.280765533447265625e+00,-7.282565593719482422e+00,-7.067703247070312500e+00,-6.868040084838867188e+00,-7.075153350830078125e+00,-7.090523242950439453e+00,-7.255187511444091797e+00,-7.169977188110351562e+00,nan,-7.279631137847900391e+00,-7.080510616302490234e+00,-7.158861160278320312e+00,-7.186952114105224609e+00,-7.082363605499267578e+00,-6.879073143005371094e+00,-7.068212509155273438e+00,-7.065856456756591797e+00,-6.868118762969970703e+00,-7.054684638977050781e+00,-7.049126148223876953e+00,-7.042430877685546875e+00,-7.048192501068115234e+00,-7.025935173034667969e+00,-6.829536914825439453e+00,-7.013300418853759766e+00,-6.998420715332031250e+00,-7.077461719512939453e+00,-7.067663192749023438e+00,-7.062736034393310547e+00,-7.050519943237304688e+00,-7.035367965698242188e+00,-7.026759624481201172e+00,-6.906618118286132812e+00,-6.897937297821044922e+00,-6.893906593322753906e+00,-7.172561645507812500e+00,-6.954535484313964844e+00,-6.931860446929931641e+00,-7.021537303924560547e+00,-7.031154155731201172e+00,nan,-6.979997634887695312e+00,-6.984812736511230469e+00,-7.069128990173339844e+00,-7.054728984832763672e+00,-7.012180328369140625e+00,-7.034741878509521484e+00,-7.042425632476806641e+00,-7.035012245178222656e+00,-7.021766662597656250e+00,-7.006084442138671875e+00,-6.973940372467041016e+00,-6.784855365753173828e+00,-6.905710697174072266e+00,-6.931759834289550781e+00,-6.930885791778564453e+00,-6.934104442596435547e+00,-6.907193183898925781e+00,-6.882079124450683594e+00,-6.904190063476562500e+00,-6.820644378662109375e+00,-6.858099460601806641e+00,-6.812807559967041016e+00,-6.801392078399658203e+00,-7.033012866973876953e+00,-6.985524177551269531e+00,-7.004252433776855469e+00,-6.997589111328125000e+00,-6.968805313110351562e+00,-6.950783729553222656e+00,-6.930158138275146484e+00,-6.909077644348144531e+00,-6.893376350402832031e+00,-6.848482608795166016e+00,-6.796612262725830078e+00,-6.665721416473388672e+00,-6.638652801513671875e+00,-6.839497566223144531e+00,-6.867494583129882812e+00,-6.855519771575927734e+00,-6.841605663299560547e+00,-6.793780326843261719e+00,-6.771556854248046875e+00,-6.694344520568847656e+00,-6.732851505279541016e+00,-6.785316944122314453e+00,-6.781742572784423828e+00,-6.790734291076660156e+00,-6.772397041320800781e+00,-6.784096240997314453e+00,-6.730927467346191406e+00,-6.650722503662109375e+00,-6.703235149383544922e+00,-6.680067062377929688e+00,-6.677654266357421875e+00,-6.785724163055419922e+00,-6.675652980804443359e+00,-6.700676441192626953e+00,-5.787424564361572266e+00,-6.841904640197753906e+00,-6.845488071441650391e+00,nan,nan,-6.797257423400878906e+00,-6.895722389221191406e+00,-6.758839607238769531e+00,-6.744587421417236328e+00,nan,-6.744349479675292969e+00,nan,nan,-6.826615810394287109e+00,-6.831772804260253906e+00,-6.580847263336181641e+00,-6.751818180084228516e+00,-6.446580886840820312e+00,nan,-6.339703083038330078e+00,nan,nan,nan,nan,nan,-6.680149078369140625e+00,nan,nan,nan,nan,nan,nan,nan,nan,nan,nan,nan,nan,nan,nan,nan
-8.331018447875976562e+00,-8.347418785095214844e+00,-8.381849288940429688e+00,-7.476759910583496094e+00,-8.102558135986328125e+00,-7.193802833557128906e+00,-7.488757610321044922e+00,-7.489110946655273438e+00,-7.210368633270263672e+00,-7.214748382568359375e+00,-7.218592166900634766e+00,-7.227322101593017578e+00,-7.230837345123291016e+00,-7.237081527709960938e+00,-7.439952850341796875e+00,-7.248525142669677734e+00,-7.340813636779785156e+00,-7.399287223815917969e+00,-7.479172229766845703e+00,-7.379487991333007812e+00,-7.358158111572265625e+00,-7.281914234161376953e+00,-7.275141716003417969e+00,-6.812813758850097656e+00,-7.277801513671875000e+00,-7.279890537261962891e+00,-7.281444549560546875e+00,-7.094940662384033203e+00,-7.089059352874755859e+00,-6.851702690124511719e+00,-7.071605205535888672e+00,-7.084457874298095703e+00,-7.151904106140136719e+00,-6.864616870880126953e+00,-7.131505012512207031e+00,-7.077119350433349609e+00,-7.077049255371093750e+00,-7.145802021026611328e+00,-6.663185596466064453e+00,-7.069685935974121094e+00,-6.873414516448974609e+00,-6.865448951721191406e+00,-6.864622592926025391e+00,-6.860308647155761719e+00,-7.048568725585937500e+00,-7.045460224151611328e+00,-7.034696578979492188e+00,-7.032877445220947266e+00,-7.023302078247070312e+00,-7.008440971374511719e+00,-7.003632068634033203e+00,-6.991328239440917969e+00,-6.983785152435302734e+00,-6.998380661010742188e+00,-7.061657905578613281e+00,-7.023620605468750000e+00,-7.019685745239257812e+00,-6.915134906768798828e+00,-7.007032871246337891e+00,-6.897202968597412109e+00,-6.880639076232910156e+00,-7.039076805114746094e+00,-6.970805168151855469e+00,-6.960723876953125000e+00,-6.906204700469970703e+00,-7.169322490692138672e+00,-7.020067214965820312e+00,-6.977374553680419922e+00,-6.973878383636474609e+00,-6.960832118988037109e+00,-7.023400783538818359e+00,-7.000701904296875000e+00,-6.984960556030273438e+00,-6.964533329010009766e+00,-7.036428451538085938e+00,-7.023674964904785156e+00,-7.000505447387695312e+00,-6.914083003997802734e+00,nan,-6.777439594268798828e+00,-6.885927677154541016e+00,-6.883394718170166016e+00,-6.882113933563232422e+00,-6.882711887359619141e+00,-6.857625484466552734e+00,-6.863915920257568359e+00,-6.811530113220214844e+00,-6.966012001037597656e+00,-6.935419082641601562e+00,-6.943483352661132812e+00,-6.859633922576904297e+00,nan,-6.954803466796875000e+00,-6.953519344329833984e+00,-6.943100929260253906e+00,-6.919581890106201172e+00,-6.899449825286865234e+00,-6.867715835571289062e+00,-6.866626262664794922e+00,-6.835741996765136719e+00,-6.825392246246337891e+00,-6.741547584533691406e+00,-6.639919757843017578e+00,-6.626890182495117188e+00,-6.811513423919677734e+00,-6.583376884460449219e+00,-6.571657180786132812e+00,-6.812954425811767578e+00,-6.780634880065917969e+00,-6.734556198120117188e+00,-6.677445888519287109e+00,-6.624197959899902344e+00,-6.661119937896728516e+00,-6.724908351898193359e+00,-6.730717658996582031e+00,-6.601750850677490234e+00,-6.544897556304931641e+00,-6.684266567230224609e+00,-6.765787124633789062e+00,-6.744172573089599609e+00,-6.711311340332031250e+00,-6.645205020904541016e+00,-6.631545066833496094e+00,-6.623085021972656250e+00,-6.653788566589355469e+00,-6.619255542755126953e+00,-6.450683116912841797e+00,-6.717824459075927734e+00,-6.789381027221679688e+00,-6.693036079406738281e+00,-6.788612365722656250e+00,-6.743656635284423828e+00,-6.673366546630859375e+00,-6.726095676422119141e+00,-6.647253990173339844e+00,-6.690960884094238281e+00,-6.656073570251464844e+00,-6.753405094146728516e+00,-6.763595104217529297e+00,-6.634926795959472656e+00,nan,-6.781542778015136719e+00,nan,nan,nan,nan,nan,nan,nan,nan,nan,nan,-6.732702255249023438e+00,nan,nan,nan,nan,nan,nan,nan,nan,nan,nan,nan,nan
-8.354206085205078125e+00,-8.365912437438964844e+00,-8.120141029357910156e+00,-8.108599662780761719e+00,-8.043145179748535156e+00,-7.491567611694335938e+00,-7.491876602172851562e+00,-7.495718479156494141e+00,-7.494363784790039062e+00,-7.222303867340087891e+00,-7.226498603820800781e+00,-7.230277061462402344e+00,-6.968621730804443359e+00,-6.972878456115722656e+00,-6.985794544219970703e+00,-7.249590873718261719e+00,-7.424298763275146484e+00,-7.761110305786132812e+00,-7.332814693450927734e+00,-7.342144489288330078e+00,-7.272992134094238281e+00,-7.275057792663574219e+00,-7.276062965393066406e+00,-7.048657894134521484e+00,-7.047807216644287109e+00,-7.054221153259277344e+00,-7.057408332824707031e+00,-7.069122314453125000e+00,-7.069070339202880859e+00,-7.067406177520751953e+00,-6.852061748504638672e+00,-7.071423053741455078e+00,-7.072150707244873047e+00,-7.073757171630859375e+00,-7.072978973388671875e+00,-6.860851764678955078e+00,-7.072299480438232422e+00,-7.070615768432617188e+00,-6.863157272338867188e+00,-7.070936203002929688e+00,-6.864118576049804688e+00,-6.859592437744140625e+00,-6.853619575500488281e+00,-6.851068019866943359e+00,-7.043786048889160156e+00,-7.042726993560791016e+00,-7.030691146850585938e+00,-7.023235797882080078e+00,-7.014419555664062500e+00,-7.009405136108398438e+00,-6.999234199523925781e+00,-6.990375518798828125e+00,-6.981808662414550781e+00,-6.967223167419433594e+00,-6.997404098510742188e+00,-6.983426570892333984e+00,-6.930305480957031250e+00,-6.914765834808349609e+00,-6.903335571289062500e+00,-6.675169467926025391e+00,-6.877740859985351562e+00,-6.864956855773925781e+00,-6.843292713165283203e+00,-6.976587772369384766e+00,-7.047974109649658203e+00,-6.998188972473144531e+00,-6.997126102447509766e+00,-6.994610309600830078e+00,-6.968349456787109375e+00,-6.956634521484375000e+00,-6.957268238067626953e+00,-7.017882347106933594e+00,-6.951650142669677734e+00,-6.949233531951904297e+00,-6.940556049346923828e+00,-6.946912765502929688e+00,-6.954730033874511719e+00,-6.961808681488037109e+00,-6.918259143829345703e+00,-6.778594017028808594e+00,-6.859141826629638672e+00,-6.825390338897705078e+00,-6.839426994323730469e+00,-6.832181930541992188e+00,-6.970467567443847656e+00,-6.826653957366943359e+00,-6.833694458007812500e+00,-6.944821357727050781e+00,-6.927177906036376953e+00,-6.858278751373291016e+00,-6.895289897918701172e+00,-6.876608848571777344e+00,nan,-6.923625946044921875e+00,-6.926968097686767578e+00,-6.921796798706054688e+00,-6.911790847778320312e+00,-6.887693405151367188e+00,-6.858086585998535156e+00,-6.836917877197265625e+00,-6.794159889221191406e+00,-6.762320041656494141e+00,-6.699929714202880859e+00,-6.679276466369628906e+00,-6.730055809020996094e+00,-6.591200351715087891e+00,-6.584158897399902344e+00,-6.743554592132568359e+00,-6.744180202484130859e+00,-6.721103191375732422e+00,-6.526970386505126953e+00,-6.635894298553466797e+00,-6.598096847534179688e+00,-6.566060066223144531e+00,-6.610981941223144531e+00,-6.675522804260253906e+00,-6.647584438323974609e+00,-6.623032569885253906e+00,-6.666678428649902344e+00,-6.711749553680419922e+00,-6.663590908050537109e+00,-6.630369186401367188e+00,-6.629232883453369141e+00,-6.625772476196289062e+00,-6.627423286437988281e+00,-6.271976947784423828e+00,-6.631521224975585938e+00,-6.753065586090087891e+00,-6.674520015716552734e+00,-6.648176193237304688e+00,-6.639148712158203125e+00,-6.702239513397216797e+00,-6.705259799957275391e+00,-6.642850875854492188e+00,nan,-6.731256008148193359e+00,-6.716691017150878906e+00,-6.813200473785400391e+00,-6.748199462890625000e+00,-6.745859146118164062e+00,-6.777344703674316406e+00,-6.744287490844726562e+00,-6.743671417236328125e+00,-6.742149353027343750e+00,nan,nan,-6.494007587432861328e+00,nan,-6.734334945678710938e+00,nan,nan,-6.732848644256591797e+00,-6.731575965881347656e+00,-6.696828842163085938e+00,nan,nan,nan,nan,nan,nan,nan,nan,nan,nan,nan
-8.103289604187011719e+00,-8.124285697937011719e+00,-8.084120750427246094e+00,-7.523694038391113281e+00,-7.540279865264892578e+00,-7.507792472839355469e+00,-7.503042221069335938e+00,-7.938487052917480469e+00,-7.225414276123046875e+00,-7.226954460144042969e+00,-7.233579158782958984e+00,-7.242202281951904297e+00,-6.967490196228027344e+00,-7.249485015869140625e+00,-7.251985549926757812e+00,-7.382115840911865234e+00,-7.801138401031494141e+00,-7.328184604644775391e+00,-7.269734859466552734e+00,-7.273144245147705078e+00,-7.272804260253906250e+00,-7.275829315185546875e+00,-7.059880733489990234e+00,-7.044470787048339844e+00,-7.046362400054931641e+00,-7.051763534545898438e+00,-7.055381298065185547e+00,-7.058813571929931641e+00,-7.062552452087402344e+00,-7.058312416076660156e+00,-7.067804336547851562e+00,-7.068408489227294922e+00,-7.071311473846435547e+00,-6.850247383117675781e+00,-7.070446014404296875e+00,-7.070243835449218750e+00,-7.069740772247314453e+00,-7.069456577301025391e+00,-6.856510162353515625e+00,-6.972985744476318359e+00,-6.848763465881347656e+00,-6.855767726898193359e+00,-6.845821857452392578e+00,-6.837476253509521484e+00,-6.843347072601318359e+00,-7.037548065185546875e+00,-7.021281719207763672e+00,-7.018086910247802734e+00,-7.000965118408203125e+00,-7.000962734222412109e+00,-6.995131492614746094e+00,-6.985245704650878906e+00,-6.973668098449707031e+00,-6.963805675506591797e+00,-6.952710628509521484e+00,nan,-6.958726406097412109e+00,-6.944526195526123047e+00,-6.904488563537597656e+00,-6.896297454833984375e+00,-6.971720218658447266e+00,-6.942085266113281250e+00,nan,-6.835283279418945312e+00,nan,-6.984286785125732422e+00,-6.834229469299316406e+00,-6.988928794860839844e+00,-6.977709770202636719e+00,-6.956802845001220703e+00,-6.944952011108398438e+00,-6.933804988861083984e+00,-6.938933849334716797e+00,-6.894800662994384766e+00,-6.901472568511962891e+00,-6.885403156280517578e+00,-6.932459831237792969e+00,-6.923562526702880859e+00,-6.914897441864013672e+00,-6.810821533203125000e+00,-6.860328674316406250e+00,-6.824290275573730469e+00,-6.722073078155517578e+00,-6.830750465393066406e+00,-6.835466384887695312e+00,nan,-6.795044898986816406e+00,-6.760948657989501953e+00,-6.756357192993164062e+00,-6.897371292114257812e+00,-6.879329681396484375e+00,-6.823336124420166016e+00,-6.525587558746337891e+00,-6.888927936553955078e+00,-6.865147590637207031e+00,-6.894083976745605469e+00,-6.512339591979980469e+00,-6.863090038299560547e+00,-6.834199905395507812e+00,-6.809691429138183594e+00,-6.793850421905517578e+00,-6.777794837951660156e+00,-6.701873779296875000e+00,-6.657875537872314453e+00,-6.629451274871826172e+00,-6.688680648803710938e+00,-6.695357799530029297e+00,-6.697219371795654297e+00,-6.704554557800292969e+00,-6.711161613464355469e+00,-6.576329708099365234e+00,-6.508206844329833984e+00,-6.567443847656250000e+00,-6.525755405426025391e+00,-6.478110313415527344e+00,-6.482296943664550781e+00,-6.653246879577636719e+00,-6.614594459533691406e+00,-6.655818939208984375e+00,-6.683515071868896484e+00,-6.752882480621337891e+00,-6.630596637725830078e+00,-6.573845863342285156e+00,-6.636997222900390625e+00,-6.621167659759521484e+00,-6.639004230499267578e+00,-6.626752853393554688e+00,-6.658754825592041016e+00,-6.625328540802001953e+00,-6.631647586822509766e+00,-6.636206626892089844e+00,nan,-6.639453887939453125e+00,-6.641942024230957031e+00,-6.490825653076171875e+00,nan,nan,-6.647037506103515625e+00,-6.662777900695800781e+00,-6.801710128784179688e+00,-6.794627189636230469e+00,-6.691671848297119141e+00,-6.742407798767089844e+00,-6.762226104736328125e+00,-6.738212585449218750e+00,nan,-6.737987995147705078e+00,-6.737407684326171875e+00,-6.735428810119628906e+00,-6.677546501159667969e+00,nan,-6.731815338134765625e+00,-6.731549263000488281e+00,-6.692723274230957031e+00,nan,nan,nan,nan,nan,nan,nan,nan,nan,nan,nan
-7.178201198577880859e+00,-7.177765369415283203e+00,-7.577700138092041016e+00,-7.546897888183593750e+00,-8.010174751281738281e+00,-7.956556320190429688e+00,-7.942010402679443359e+00,-7.894148349761962891e+00,-7.857618331909179688e+00,-7.760584354400634766e+00,-7.235342502593994141e+00,-7.245597839355468750e+00,-7.250225543975830078e+00,-7.251316547393798828e+00,-7.258705139160156250e+00,-7.780796051025390625e+00,-7.307616710662841797e+00,-7.269365310668945312e+00,-7.269219398498535156e+00,-7.258362293243408203e+00,-7.207708835601806641e+00,-7.054080963134765625e+00,-7.036699771881103516e+00,-7.042737007141113281e+00,-7.044883728027343750e+00,-7.049721717834472656e+00,-7.053163528442382812e+00,-7.057588577270507812e+00,-7.058720588684082031e+00,-7.042209148406982422e+00,-6.837757587432861328e+00,-6.839153766632080078e+00,-6.843764305114746094e+00,-6.848449230194091797e+00,-6.875257015228271484e+00,-6.848607540130615234e+00,-6.866296768188476562e+00,-6.853496551513671875e+00,-6.875828266143798828e+00,-6.971860408782958984e+00,-6.838791847229003906e+00,-6.867180824279785156e+00,-6.835218429565429688e+00,-6.826245307922363281e+00,-6.821478366851806641e+00,-6.902102470397949219e+00,-6.825827598571777344e+00,-7.016358852386474609e+00,-6.798513412475585938e+00,-6.999238491058349609e+00,-6.988800048828125000e+00,-6.982525825500488281e+00,-6.969371795654296875e+00,-6.960938453674316406e+00,-6.949000835418701172e+00,-6.933745861053466797e+00,-6.922985076904296875e+00,-6.914341449737548828e+00,-6.899113178253173828e+00,-6.957726478576660156e+00,-6.947785854339599609e+00,-6.940674304962158203e+00,-6.895294189453125000e+00,-6.826111793518066406e+00,-6.944609165191650391e+00,-6.905072212219238281e+00,-6.902188301086425781e+00,-6.944350242614746094e+00,-6.979424476623535156e+00,-6.953706264495849609e+00,-6.947718143463134766e+00,-6.928079605102539062e+00,-6.909421920776367188e+00,-6.892423629760742188e+00,-6.880119323730468750e+00,-6.864423274993896484e+00,-6.910933971405029297e+00,-6.825560092926025391e+00,-6.882917881011962891e+00,-6.865357398986816406e+00,-6.854809284210205078e+00,-6.797994136810302734e+00,-6.754605770111083984e+00,-6.750060081481933594e+00,-6.803702831268310547e+00,-6.784457206726074219e+00,-6.701039791107177734e+00,nan,-6.616127967834472656e+00,-6.613322257995605469e+00,-6.868811607360839844e+00,-6.558593750000000000e+00,-6.532487392425537109e+00,-6.642121791839599609e+00,-6.843474388122558594e+00,-6.850778579711914062e+00,-6.851225376129150391e+00,-6.858975887298583984e+00,-6.833783626556396484e+00,-6.810439586639404297e+00,-6.773124694824218750e+00,-6.754468917846679688e+00,-6.721599102020263672e+00,-6.695810317993164062e+00,-6.633427619934082031e+00,-6.602577209472656250e+00,-6.651047706604003906e+00,-6.668745040893554688e+00,-6.668652534484863281e+00,-6.658398628234863281e+00,-6.624902725219726562e+00,-6.689944267272949219e+00,-6.619853973388671875e+00,-6.541389465332031250e+00,-6.290785789489746094e+00,-6.255206108093261719e+00,-6.391806125640869141e+00,-6.583455085754394531e+00,-6.488595485687255859e+00,-6.179482936859130859e+00,-6.547847747802734375e+00,-6.621702194213867188e+00,nan,-6.533931255340576172e+00,nan,-6.545690059661865234e+00,-6.701335906982421875e+00,-6.622858047485351562e+00,-6.623082160949707031e+00,-6.623126029968261719e+00,-6.628102779388427734e+00,-6.642273426055908203e+00,-6.624489307403564453e+00,-6.626592159271240234e+00,nan,-6.638313293457031250e+00,-6.641657352447509766e+00,-6.634772300720214844e+00,nan,-6.651148796081542969e+00,nan,-6.753643989562988281e+00,-6.657681465148925781e+00,nan,-6.734971046447753906e+00,-6.662689685821533203e+00,-6.739524841308593750e+00,-6.641971111297607422e+00,nan,-6.714632034301757812e+00,-6.629500389099121094e+00,-6.629412651062011719e+00,-6.687302589416503906e+00,-6.650164604187011719e+00,nan,nan,nan,nan,nan,nan,nan,nan,nan,nan,nan
-7.507376194000244141e+00,-7.190521240234375000e+00,-7.514503002166748047e+00,-7.515763759613037109e+00,-7.565731525421142578e+00,-7.869376659393310547e+00,-7.885201930999755859e+00,-7.790928840637207031e+00,-7.752966403961181641e+00,-7.751233577728271484e+00,-7.726279735565185547e+00,-7.248707294464111328e+00,-7.252039432525634766e+00,-7.257731914520263672e+00,-7.261776924133300781e+00,-7.264060974121093750e+00,-7.256536960601806641e+00,-7.267666339874267578e+00,-7.210274219512939453e+00,-7.182852268218994141e+00,-6.765672206878662109e+00,-7.030513763427734375e+00,-7.035238265991210938e+00,-6.797656536102294922e+00,-7.017189979553222656e+00,-7.046310901641845703e+00,-7.046369552612304688e+00,-7.054638862609863281e+00,-7.053401947021484375e+00,-7.042889118194580078e+00,-6.829977512359619141e+00,-6.831448078155517578e+00,-6.968954563140869141e+00,-6.948053359985351562e+00,-6.846891403198242188e+00,-6.965233802795410156e+00,-6.837311267852783203e+00,-6.836568832397460938e+00,-6.889151096343994141e+00,-6.898350715637207031e+00,-6.839749336242675781e+00,-6.981859207153320312e+00,-6.822881698608398438e+00,-6.820646286010742188e+00,-6.814031600952148438e+00,-6.808135509490966797e+00,-6.814328670501708984e+00,-6.836782932281494141e+00,-6.791504383087158203e+00,-6.777415275573730469e+00,-6.770717144012451172e+00,-6.978597164154052734e+00,-6.518239021301269531e+00,-6.732538700103759766e+00,-6.495944499969482422e+00,-6.932364940643310547e+00,-6.915863037109375000e+00,-6.905830860137939453e+00,-6.899400711059570312e+00,-7.198825836181640625e+00,-6.865119934082031250e+00,-6.928613662719726562e+00,-6.922006130218505859e+00,-6.813253879547119141e+00,-6.809558868408203125e+00,-6.886760234832763672e+00,-7.107560634613037109e+00,-6.913935184478759766e+00,-6.884487152099609375e+00,-6.929738044738769531e+00,-6.924755573272705078e+00,-6.921181678771972656e+00,-6.842591285705566406e+00,-6.891013622283935547e+00,-6.883808612823486328e+00,-6.863197803497314453e+00,-6.850410938262939453e+00,-6.827758789062500000e+00,-6.803891181945800781e+00,-6.800680160522460938e+00,-6.779390811920166016e+00,-6.813540458679199219e+00,-6.797478675842285156e+00,-6.728849887847900391e+00,-6.754099845886230469e+00,-6.679845333099365234e+00,-6.654182910919189453e+00,-6.641995429992675781e+00,-6.616269111633300781e+00,-6.596221923828125000e+00,-6.853043079376220703e+00,-6.554834842681884766e+00,-6.827601432800292969e+00,-6.796646118164062500e+00,-6.786505222320556641e+00,-6.800457477569580078e+00,-6.841123104095458984e+00,-6.821796894073486328e+00,-6.812373638153076172e+00,-6.819785594940185547e+00,-6.795880317687988281e+00,-6.719384193420410156e+00,-6.706041336059570312e+00,-6.686018466949462891e+00,-6.668862342834472656e+00,-6.585579395294189453e+00,-6.588728904724121094e+00,-6.627297878265380859e+00,-6.622692584991455078e+00,-6.622460842132568359e+00,-6.650269985198974609e+00,-6.646815776824951172e+00,-6.647715568542480469e+00,-6.603090286254882812e+00,-6.512603759765625000e+00,-6.357299804687500000e+00,-6.239183425903320312e+00,-6.543546199798583984e+00,-6.540175914764404297e+00,-6.438282012939453125e+00,-6.141976356506347656e+00,-6.572033882141113281e+00,-6.085315704345703125e+00,-5.938538074493408203e+00,nan,-6.579972743988037109e+00,nan,-6.170371055603027344e+00,nan,nan,nan,-6.592180728912353516e+00,-6.622304916381835938e+00,-6.624239444732666016e+00,-6.644663810729980469e+00,-6.529975414276123047e+00,-6.629255771636962891e+00,-6.629297256469726562e+00,-6.649654865264892578e+00,nan,nan,-6.505819320678710938e+00,nan,-6.767261505126953125e+00,nan,-6.750732421875000000e+00,-6.635380268096923828e+00,-6.735176086425781250e+00,nan,-6.720217704772949219e+00,-6.708835601806640625e+00,nan,-6.684350967407226562e+00,-6.680176734924316406e+00,nan,nan,nan,nan,nan,nan,nan,nan,nan,nan,nan
-7.188848495483398438e+00,-7.519133567810058594e+00,-7.995241641998291016e+00,-7.957041263580322266e+00,-7.887583255767822266e+00,-7.843073844909667969e+00,-7.799146652221679688e+00,-7.734250068664550781e+00,-7.651188373565673828e+00,-7.245644569396972656e+00,-7.245814800262451172e+00,-7.250012874603271484e+00,-7.257447242736816406e+00,-6.978618144989013672e+00,-7.255465984344482422e+00,-7.188005447387695312e+00,-7.003433227539062500e+00,-7.007485389709472656e+00,-7.143949985504150391e+00,-7.150085926055908203e+00,-7.025841712951660156e+00,-7.030388355255126953e+00,-7.031439781188964844e+00,-6.785783290863037109e+00,-6.808707714080810547e+00,-6.799254417419433594e+00,-7.002917766571044922e+00,-7.037187099456787109e+00,-7.006989479064941406e+00,-6.844128608703613281e+00,-6.822402000427246094e+00,-6.946383476257324219e+00,-6.939654350280761719e+00,-6.960171222686767578e+00,-6.834991931915283203e+00,-6.832021236419677734e+00,-6.834812641143798828e+00,-6.828772544860839844e+00,-6.821933269500732422e+00,-6.841886043548583984e+00,-6.834416866302490234e+00,-6.833920478820800781e+00,-6.814352035522460938e+00,-6.807837963104248047e+00,-6.803008556365966797e+00,-6.798583507537841797e+00,-6.787929058074951172e+00,-6.850140094757080078e+00,-6.772502899169921875e+00,-6.768593311309814453e+00,-6.767352104187011719e+00,-6.749303817749023438e+00,-6.961730480194091797e+00,-6.726095199584960938e+00,-6.750177383422851562e+00,-6.799771308898925781e+00,-6.880363941192626953e+00,-6.790439605712890625e+00,-6.891188144683837891e+00,-6.897216796875000000e+00,-6.860489845275878906e+00,-6.874650001525878906e+00,-6.922570228576660156e+00,-6.865918159484863281e+00,-6.888996124267578125e+00,-6.782571792602539062e+00,-6.883665561676025391e+00,-6.905072212219238281e+00,-6.898447036743164062e+00,-6.885001659393310547e+00,-6.873751163482666016e+00,-6.875928878784179688e+00,-6.839715957641601562e+00,-6.827400207519531250e+00,-6.816520690917968750e+00,-6.861704826354980469e+00,-6.854029655456542969e+00,-6.832341194152832031e+00,-6.816148757934570312e+00,-6.798968315124511719e+00,-6.773427963256835938e+00,-6.764871120452880859e+00,-6.751461029052734375e+00,-6.770319461822509766e+00,nan,nan,-6.654240131378173828e+00,-6.646678924560546875e+00,-6.621938228607177734e+00,-6.617732524871826172e+00,-6.691483020782470703e+00,-6.822652339935302734e+00,-6.596104621887207031e+00,-6.535840034484863281e+00,-6.775338649749755859e+00,-6.646494388580322266e+00,-6.742530345916748047e+00,-6.430159091949462891e+00,-6.800708293914794922e+00,-6.782700061798095703e+00,-6.760138034820556641e+00,nan,-6.661994934082031250e+00,-6.656676292419433594e+00,-6.663742542266845703e+00,-6.629570007324218750e+00,-6.587950706481933594e+00,-6.554122447967529297e+00,-6.565383434295654297e+00,-6.566842079162597656e+00,-6.557977676391601562e+00,-6.621477603912353516e+00,-6.627485752105712891e+00,-6.605493545532226562e+00,-6.555791854858398438e+00,-6.501441478729248047e+00,-6.301709651947021484e+00,-6.130039215087890625e+00,nan,-6.634087562561035156e+00,-6.313301563262939453e+00,-6.478704929351806641e+00,-6.616074085235595703e+00,-6.592436313629150391e+00,-5.809142112731933594e+00,nan,nan,nan,-5.755545616149902344e+00,-6.254786968231201172e+00,nan,-6.494437217712402344e+00,-6.469365119934082031e+00,-6.558795928955078125e+00,nan,-6.562615871429443359e+00,-6.624956607818603516e+00,nan,-6.460343837738037109e+00,-6.628860950469970703e+00,nan,-6.655703067779541016e+00,nan,-6.633414268493652344e+00,-6.631628990173339844e+00,-6.633015632629394531e+00,-6.632401466369628906e+00,nan,nan,-6.725438594818115234e+00,-6.713157653808593750e+00,-6.672378540039062500e+00,-6.701998233795166016e+00,-6.650320053100585938e+00,nan,nan,nan,nan,nan,nan,nan,nan,nan,nan,nan
-8.026306152343750000e+00,-7.978322982788085938e+00,-7.933840751647949219e+00,-7.894715309143066406e+00,-7.835847377777099609e+00,-7.764355182647705078e+00,-7.186345100402832031e+00,-6.948018074035644531e+00,-6.944012165069580078e+00,-6.949380397796630859e+00,-6.958433628082275391e+00,-7.265749931335449219e+00,-6.973029613494873047e+00,-6.692641735076904297e+00,-6.985983371734619141e+00,-6.995551109313964844e+00,-7.001771450042724609e+00,-7.003411769866943359e+00,nan,-7.017208576202392578e+00,-7.020721435546875000e+00,-7.026575088500976562e+00,-6.958743572235107422e+00,-6.781807899475097656e+00,-6.955330371856689453e+00,-6.999558448791503906e+00,-7.018944740295410156e+00,-6.979956150054931641e+00,-6.918309211730957031e+00,-6.808270931243896484e+00,-6.831743717193603516e+00,-6.840375900268554688e+00,-6.862022399902343750e+00,-6.902437210083007812e+00,-6.824974060058593750e+00,-6.817454338073730469e+00,-6.818480014801025391e+00,-6.840427875518798828e+00,-6.819481849670410156e+00,-6.813889503479003906e+00,-6.810509204864501953e+00,-6.642066478729248047e+00,-6.802181720733642578e+00,-6.798339843750000000e+00,-6.788547515869140625e+00,-6.787806987762451172e+00,-6.783274650573730469e+00,-6.773200511932373047e+00,-6.764980316162109375e+00,-6.760977745056152344e+00,-6.743723392486572266e+00,-6.736986637115478516e+00,-6.759047985076904297e+00,-6.739342212677001953e+00,-6.799602508544921875e+00,-6.854876041412353516e+00,-6.799114227294921875e+00,-6.788402557373046875e+00,-6.882698535919189453e+00,-6.877458572387695312e+00,-6.856921195983886719e+00,-6.847063064575195312e+00,-6.869728088378906250e+00,nan,-6.892241477966308594e+00,-6.794396877288818359e+00,-6.772322654724121094e+00,-6.872007369995117188e+00,-6.858362197875976562e+00,-6.884566783905029297e+00,-6.866178035736083984e+00,-6.862314224243164062e+00,-6.835993289947509766e+00,-6.796235084533691406e+00,-6.829595088958740234e+00,-6.801621437072753906e+00,-6.821980476379394531e+00,-6.795783519744873047e+00,-6.823722839355468750e+00,-6.794592380523681641e+00,-6.787836551666259766e+00,-6.760254859924316406e+00,-6.751083850860595703e+00,nan,-6.937795639038085938e+00,-6.787818431854248047e+00,-6.750218868255615234e+00,-6.645503520965576172e+00,-6.632316589355468750e+00,-6.605693817138671875e+00,-6.588114738464355469e+00,-6.604154586791992188e+00,-6.788356304168701172e+00,-6.781321525573730469e+00,-6.648905277252197266e+00,-6.565827369689941406e+00,-6.737369537353515625e+00,-6.625061035156250000e+00,-6.762617111206054688e+00,-6.761041164398193359e+00,-6.762527942657470703e+00,-6.732047557830810547e+00,-6.687171936035156250e+00,-6.642271995544433594e+00,-6.651119232177734375e+00,-6.627097606658935547e+00,-6.607668399810791016e+00,-6.537658691406250000e+00,-6.549618244171142578e+00,-6.553693294525146484e+00,-6.510348320007324219e+00,-6.574385643005371094e+00,-6.581789493560791016e+00,-6.553344249725341797e+00,-6.608178615570068359e+00,-6.534690856933593750e+00,-6.245253562927246094e+00,-6.399726867675781250e+00,-6.249204635620117188e+00,-6.312308311462402344e+00,nan,nan,-6.551278114318847656e+00,-6.469656467437744141e+00,-6.584388256072998047e+00,-6.531703472137451172e+00,nan,-5.821391105651855469e+00,-5.777172565460205078e+00,-5.859233856201171875e+00,nan,nan,-6.555000782012939453e+00,-6.550830364227294922e+00,-6.474807262420654297e+00,-6.560043334960937500e+00,-6.518285751342773438e+00,nan,nan,nan,nan,-6.623647689819335938e+00,-6.646363258361816406e+00,-6.631614685058593750e+00,nan,nan,nan,-6.553534507751464844e+00,nan,nan,nan,nan,nan,nan,nan,nan,nan,nan,nan,nan,nan,nan,nan,nan,nan
-7.957707405090332031e+00,-7.941536426544189453e+00,-7.878370761871337891e+00,-7.805336475372314453e+00,-7.221795558929443359e+00,-6.915311813354492188e+00,-7.705811977386474609e+00,-6.923563003540039062e+00,-6.942440032958984375e+00,-6.950226783752441406e+00,-6.956786632537841797e+00,-6.975224494934082031e+00,-6.975053787231445312e+00,-6.981472015380859375e+00,-6.986387252807617188e+00,-6.991456985473632812e+00,-7.000795364379882812e+00,-7.003267765045166016e+00,-6.744843006134033203e+00,-6.744269371032714844e+00,-6.748911857604980469e+00,-6.990702629089355469e+00,-6.769129753112792969e+00,-6.774431705474853516e+00,-6.971583366394042969e+00,-6.962118148803710938e+00,-6.957826137542724609e+00,-6.901948451995849609e+00,-6.805207252502441406e+00,-6.799726486206054688e+00,-6.804227352142333984e+00,-6.807716846466064453e+00,-6.809611320495605469e+00,-6.814307212829589844e+00,-6.808438301086425781e+00,-6.810225486755371094e+00,-6.809784889221191406e+00,-6.816915035247802734e+00,-6.806796550750732422e+00,-6.807369709014892578e+00,-6.799437046051025391e+00,-6.568334579467773438e+00,-6.772518157958984375e+00,-6.786938667297363281e+00,-6.786750316619873047e+00,-6.778918743133544922e+00,-6.771527767181396484e+00,-6.778765678405761719e+00,-6.763056278228759766e+00,-6.746854305267333984e+00,-6.740431785583496094e+00,-6.732753753662109375e+00,-6.770350933074951172e+00,-6.839780330657958984e+00,nan,-7.137827873229980469e+00,-6.842989444732666016e+00,-6.775707244873046875e+00,-6.842857360839843750e+00,-6.871192932128906250e+00,-6.852145195007324219e+00,-6.844002246856689453e+00,-6.833606719970703125e+00,-6.834393978118896484e+00,-6.802277565002441406e+00,-6.772609233856201172e+00,-6.764724254608154297e+00,-6.764318943023681641e+00,-6.832228660583496094e+00,-6.721205711364746094e+00,-6.705008029937744141e+00,-6.851571559906005859e+00,-6.790681838989257812e+00,nan,-6.812973022460937500e+00,-6.790588378906250000e+00,-6.787796497344970703e+00,-6.776848793029785156e+00,-6.763440608978271484e+00,-6.797533988952636719e+00,-6.784337997436523438e+00,-6.770343303680419922e+00,-6.746038436889648438e+00,-6.735750675201416016e+00,nan,-6.731729507446289062e+00,nan,-6.664514541625976562e+00,-6.630713462829589844e+00,-6.586182594299316406e+00,-6.588488101959228516e+00,-6.575466156005859375e+00,-6.606263637542724609e+00,-6.761641502380371094e+00,nan,-6.505944252014160156e+00,-6.512285232543945312e+00,-6.546806335449218750e+00,-6.450694561004638672e+00,-6.740040779113769531e+00,-6.730424404144287109e+00,-6.686351776123046875e+00,-6.600586891174316406e+00,-6.684257507324218750e+00,-6.677321434020996094e+00,-6.623889446258544922e+00,-6.540333271026611328e+00,-6.596045494079589844e+00,-6.562911510467529297e+00,-6.534958839416503906e+00,-6.576214790344238281e+00,-6.481287479400634766e+00,-6.495672225952148438e+00,-6.521224498748779297e+00,-6.338008880615234375e+00,-6.517397880554199219e+00,-6.527757644653320312e+00,-6.235659599304199219e+00,-5.956031322479248047e+00,nan,-6.338169097900390625e+00,-6.553161621093750000e+00,-6.608582973480224609e+00,nan,nan,-6.541272640228271484e+00,nan,nan,-6.512259483337402344e+00,-6.507140159606933594e+00,nan,-6.497499465942382812e+00,-6.487159252166748047e+00,-6.545040607452392578e+00,nan,-6.435300827026367188e+00,nan,nan,nan,nan,nan,nan,nan,nan,-6.644682407379150391e+00,-6.624073505401611328e+00,-6.531055450439453125e+00,-6.625777244567871094e+00,nan,nan,nan,nan,nan,-6.639472007751464844e+00,nan,nan,nan,nan,nan,nan,nan,nan,nan,nan,nan
-6.868335723876953125e+00,-7.861444950103759766e+00,-6.889743328094482422e+00,-7.742938041687011719e+00,-6.914942741394042969e+00,-6.913869380950927734e+00,-7.653718471527099609e+00,-6.964972496032714844e+00,-6.941213130950927734e+00,-6.951570510864257812e+00,-6.957993507385253906e+00,-6.968257427215576172e+00,-7.031009674072265625e+00,-6.984433650970458984e+00,-6.987583160400390625e+00,-6.991208553314208984e+00,-6.999191284179687500e+00,-7.001437187194824219e+00,-6.941818237304687500e+00,-6.920965194702148438e+00,-6.941801548004150391e+00,-6.911672592163085938e+00,-6.758040428161621094e+00,-6.774882316589355469e+00,-6.916810989379882812e+00,-6.963039875030517578e+00,-6.897312641143798828e+00,-6.786147594451904297e+00,-6.790016651153564453e+00,-6.793638706207275391e+00,-6.794101715087890625e+00,-6.801509380340576172e+00,-6.799036979675292969e+00,-6.802223682403564453e+00,-6.801161766052246094e+00,-6.801508903503417969e+00,-6.800742149353027344e+00,-6.798642635345458984e+00,-6.796183586120605469e+00,-6.797514915466308594e+00,-6.790280342102050781e+00,-6.782651901245117188e+00,-6.739351749420166016e+00,-6.781038284301757812e+00,-6.780144214630126953e+00,-6.772905349731445312e+00,-6.761847019195556641e+00,-6.757952213287353516e+00,-6.754635810852050781e+00,-7.107892513275146484e+00,-6.731728553771972656e+00,-6.759577274322509766e+00,-7.072239875793457031e+00,-6.801306724548339844e+00,-7.171618938446044922e+00,-6.863115787506103516e+00,-6.873537063598632812e+00,nan,-6.755073070526123047e+00,-6.850970268249511719e+00,-6.846093177795410156e+00,-6.837757110595703125e+00,-6.757725238800048828e+00,-6.808843612670898438e+00,-6.788106441497802734e+00,-6.780223369598388672e+00,-6.765284538269042969e+00,-6.744397640228271484e+00,-6.719339847564697266e+00,-6.705224990844726562e+00,-6.695679187774658203e+00,-6.807012557983398438e+00,-6.774746894836425781e+00,-6.763579845428466797e+00,-6.789881229400634766e+00,-6.792817592620849609e+00,-6.758248805999755859e+00,-6.765259742736816406e+00,-6.756301403045654297e+00,-6.759319782257080078e+00,-6.760448455810546875e+00,-6.763551712036132812e+00,-6.750450611114501953e+00,-6.737661838531494141e+00,-6.719575405120849609e+00,-6.691264152526855469e+00,-6.687566757202148438e+00,-6.660692214965820312e+00,-6.635169982910156250e+00,-6.625527381896972656e+00,-6.576318264007568359e+00,-6.580380439758300781e+00,-6.555740356445312500e+00,-6.592631340026855469e+00,-6.719821929931640625e+00,-6.548112869262695312e+00,-6.474253177642822266e+00,-6.463758468627929688e+00,-6.435720920562744141e+00,-6.407380580902099609e+00,-6.403657436370849609e+00,-6.677210807800292969e+00,-6.679691314697265625e+00,-6.577602863311767578e+00,-6.603340148925781250e+00,-6.533778667449951172e+00,-6.587728023529052734e+00,-6.475907802581787109e+00,-6.487028121948242188e+00,-6.525432109832763672e+00,-6.515860557556152344e+00,-6.309278011322021484e+00,-6.220560550689697266e+00,nan,-6.533727645874023438e+00,-6.459056854248046875e+00,-6.485198974609375000e+00,-6.467603683471679688e+00,nan,nan,-6.351099014282226562e+00,nan,-6.608853340148925781e+00,-6.594346523284912109e+00,-6.577108860015869141e+00,nan,nan,-6.528281211853027344e+00,-6.532228946685791016e+00,-6.534007549285888672e+00,-5.950113773345947266e+00,-6.498415470123291016e+00,-6.538806438446044922e+00,nan,-6.541085720062255859e+00,nan,nan,nan,nan,nan,nan,nan,nan,nan,-6.388160705566406250e+00,nan,nan,nan,nan,nan,-6.572370529174804688e+00,nan,nan,nan,nan,nan,nan,-6.410876274108886719e+00,nan,nan,nan,nan,nan,nan,nan
-6.871649742126464844e+00,-6.883462429046630859e+00,-6.895478248596191406e+00,-7.223299980163574219e+00,-7.647658348083496094e+00,-6.928381443023681641e+00,-6.925471305847167969e+00,-6.933528900146484375e+00,-7.096293926239013672e+00,-6.954571723937988281e+00,-6.961393356323242188e+00,-6.968081951141357422e+00,-6.976338386535644531e+00,nan,-6.987334728240966797e+00,-6.992046833038330078e+00,-6.996946334838867188e+00,-6.923171520233154297e+00,-6.929140567779541016e+00,-6.948919773101806641e+00,-6.740999221801757812e+00,-6.930286884307861328e+00,-6.784035205841064453e+00,-6.900391101837158203e+00,-6.806554794311523438e+00,-6.841670513153076172e+00,-6.774878978729248047e+00,-6.777826786041259766e+00,-6.782670021057128906e+00,-6.782615661621093750e+00,-6.779109954833984375e+00,-6.788482666015625000e+00,-6.541425704956054688e+00,nan,-6.790525436401367188e+00,-6.774054527282714844e+00,-6.735695362091064453e+00,-6.790319442749023438e+00,-6.541364669799804688e+00,-6.769265174865722656e+00,-6.783918857574462891e+00,-6.768764495849609375e+00,-6.768732547760009766e+00,-6.793601989746093750e+00,-6.837723731994628906e+00,-6.800512790679931641e+00,-6.755759239196777344e+00,-6.738678932189941406e+00,-6.741493225097656250e+00,-6.735426425933837891e+00,-6.733123779296875000e+00,-6.770962238311767578e+00,-6.723363399505615234e+00,-6.694838523864746094e+00,-6.859300136566162109e+00,-6.840363025665283203e+00,-6.901698112487792969e+00,-6.772707939147949219e+00,-6.741281509399414062e+00,-6.743238449096679688e+00,-6.841498374938964844e+00,-6.723726272583007812e+00,-6.766732215881347656e+00,-6.790445327758789062e+00,-6.786538600921630859e+00,-6.774781227111816406e+00,-6.753414154052734375e+00,-6.738860607147216797e+00,-6.727623462677001953e+00,-6.702883243560791016e+00,-6.691444873809814453e+00,-6.788132667541503906e+00,-6.767530918121337891e+00,-6.777565956115722656e+00,-6.778014183044433594e+00,-6.762832164764404297e+00,-6.726741790771484375e+00,-6.717704772949218750e+00,-6.735056400299072266e+00,-6.744749069213867188e+00,-6.514272212982177734e+00,-6.705982685089111328e+00,-6.456402778625488281e+00,-6.739808559417724609e+00,-6.695282936096191406e+00,-6.701574325561523438e+00,-6.678068161010742188e+00,-6.668285369873046875e+00,-6.639653682708740234e+00,-6.600267887115478516e+00,-6.806433677673339844e+00,-6.549618721008300781e+00,-6.526065349578857422e+00,-6.538848400115966797e+00,-6.531482696533203125e+00,-6.590267658233642578e+00,-6.504068374633789062e+00,-6.456276893615722656e+00,-6.439991950988769531e+00,-6.408485889434814453e+00,-6.402091979980468750e+00,-6.383030414581298828e+00,-6.665127754211425781e+00,-6.636157512664794922e+00,-6.545562267303466797e+00,-6.533990383148193359e+00,-6.540425300598144531e+00,-6.545221328735351562e+00,-6.538896083831787109e+00,-6.380918025970458984e+00,-6.507634162902832031e+00,-6.513197898864746094e+00,-6.403929710388183594e+00,-6.545186996459960938e+00,-6.498106002807617188e+00,-6.500946998596191406e+00,-6.376768589019775391e+00,-6.403736591339111328e+00,-6.525791645050048828e+00,-5.949904441833496094e+00,-6.157608985900878906e+00,nan,-5.912365913391113281e+00,nan,-6.576148033142089844e+00,-6.544316768646240234e+00,nan,-6.547113418579101562e+00,-6.524179458618164062e+00,-6.523299217224121094e+00,-6.530163764953613281e+00,-6.495051383972167969e+00,-6.522652626037597656e+00,-6.529018402099609375e+00,-6.473106384277343750e+00,nan,nan,nan,nan,nan,nan,nan,nan,nan,-6.328868865966796875e+00,-6.412107467651367188e+00,nan,nan,nan,nan,-6.452067375183105469e+00,-6.557735443115234375e+00,nan,nan,nan,nan,nan,nan,nan,nan,nan,nan,nan,nan,nan
-6.869705677032470703e+00,-6.894116401672363281e+00,-7.004365444183349609e+00,nan,-7.657164573669433594e+00,-7.632171630859375000e+00,-6.924755573272705078e+00,-7.727025985717773438e+00,-7.693098068237304688e+00,-7.732598304748535156e+00,-6.647221565246582031e+00,nan,nan,-7.264075756072998047e+00,-6.688208580017089844e+00,-6.691941738128662109e+00,-6.703275680541992188e+00,-6.709122180938720703e+00,-7.249542236328125000e+00,-6.738487720489501953e+00,-6.828382015228271484e+00,-6.843497276306152344e+00,-6.752700328826904297e+00,-6.750771522521972656e+00,-6.756654739379882812e+00,nan,-6.766711235046386719e+00,-6.700446605682373047e+00,-6.769157886505126953e+00,-6.771849155426025391e+00,-6.779315948486328125e+00,-6.783038616180419922e+00,nan,-6.700346946716308594e+00,-6.691997528076171875e+00,-7.060708045959472656e+00,-6.815610408782958984e+00,-6.784232616424560547e+00,-6.779139518737792969e+00,-6.527259349822998047e+00,-6.771029949188232422e+00,-6.782448291778564453e+00,-6.772601127624511719e+00,-6.758585929870605469e+00,nan,-6.766310691833496094e+00,-6.771413326263427734e+00,-6.735209465026855469e+00,-6.734179496765136719e+00,-6.721363544464111328e+00,-6.718935012817382812e+00,-7.047167778015136719e+00,-6.766225337982177734e+00,-6.760115623474121094e+00,-7.103136062622070312e+00,-7.061808586120605469e+00,-6.853581905364990234e+00,-6.748301506042480469e+00,-6.738594532012939453e+00,-6.771850109100341797e+00,-6.591124534606933594e+00,-6.830540180206298828e+00,-6.724835395812988281e+00,nan,-6.781331062316894531e+00,-6.773127079010009766e+00,-6.758119106292724609e+00,-6.737663745880126953e+00,-6.724178314208984375e+00,-6.707719802856445312e+00,-6.693643093109130859e+00,-6.708338737487792969e+00,-6.767781734466552734e+00,-6.763378620147705078e+00,-6.738165855407714844e+00,-6.760090827941894531e+00,-6.709087848663330078e+00,-6.666980743408203125e+00,-6.528311729431152344e+00,-6.713262557983398438e+00,-6.496066093444824219e+00,-6.711455821990966797e+00,nan,-6.513415813446044922e+00,-6.651621341705322266e+00,-6.646414279937744141e+00,-6.622713088989257812e+00,-6.629501819610595703e+00,-6.582605361938476562e+00,-6.582175254821777344e+00,-6.561513900756835938e+00,-6.509826660156250000e+00,-6.549624443054199219e+00,-6.716326236724853516e+00,-6.511795520782470703e+00,-6.499102592468261719e+00,-6.486699104309082031e+00,-6.476833343505859375e+00,-6.455999851226806641e+00,-6.427642822265625000e+00,-6.488117218017578125e+00,-6.675705432891845703e+00,-6.360764503479003906e+00,-6.660996437072753906e+00,-6.655442714691162109e+00,-6.607793331146240234e+00,-6.528660297393798828e+00,-6.546306610107421875e+00,-6.464535236358642578e+00,-6.308914184570312500e+00,-6.451238155364990234e+00,-6.523577213287353516e+00,-6.469849109649658203e+00,nan,-6.368105411529541016e+00,nan,-5.952548980712890625e+00,-6.482706069946289062e+00,nan,-6.442124366760253906e+00,nan,nan,nan,nan,nan,nan,nan,-6.505945682525634766e+00,-6.533174991607666016e+00,-6.520568847656250000e+00,-6.489545822143554688e+00,-6.453793525695800781e+00,-6.395504474639892578e+00,-6.470417976379394531e+00,nan,nan,nan,nan,nan,nan,nan,nan,nan,nan,nan,nan,-6.263594627380371094e+00,nan,nan,nan,-6.383433341979980469e+00,nan,nan,nan,nan,nan,nan,nan,nan,nan,nan,nan,nan,nan,nan
-6.878746986389160156e+00,-6.881781101226806641e+00,-7.651321411132812500e+00,-7.636639118194580078e+00,-7.640037059783935547e+00,-7.607045650482177734e+00,-7.731090068817138672e+00,-7.718501091003417969e+00,-6.942354202270507812e+00,-7.558592796325683594e+00,-6.958994865417480469e+00,-7.548833847045898438e+00,-7.253330707550048828e+00,-7.278726577758789062e+00,-6.703993797302246094e+00,-6.688808441162109375e+00,-6.729501724243164062e+00,-7.236552715301513672e+00,-7.162138938903808594e+00,-6.832554817199707031e+00,nan,-7.104161262512207031e+00,nan,-6.745992660522460938e+00,-7.159631729125976562e+00,-6.815670967102050781e+00,nan,nan,-6.766418457031250000e+00,nan,-6.771455287933349609e+00,-6.780866622924804688e+00,-6.987860679626464844e+00,nan,-7.026363372802734375e+00,-6.989208221435546875e+00,-6.794752120971679688e+00,-6.797989845275878906e+00,-6.813666820526123047e+00,-6.793539047241210938e+00,-6.766634941101074219e+00,-6.821068763732910156e+00,-6.732367992401123047e+00,-6.751059532165527344e+00,-6.746185779571533203e+00,-6.758934497833251953e+00,-6.760647296905517578e+00,-6.732323169708251953e+00,-7.066688060760498047e+00,-6.719805240631103516e+00,nan,-6.696371078491210938e+00,-6.758893966674804688e+00,-6.670339584350585938e+00,-6.682034492492675781e+00,nan,-6.783833026885986328e+00,-6.748464107513427734e+00,-6.715302467346191406e+00,-6.731213569641113281e+00,-6.649424552917480469e+00,-6.704926490783691406e+00,-6.799047946929931641e+00,-6.726952075958251953e+00,-6.778277873992919922e+00,-6.773813247680664062e+00,-6.751410484313964844e+00,-6.731231212615966797e+00,-6.670763015747070312e+00,-6.694782257080078125e+00,-6.690662860870361328e+00,-6.669977188110351562e+00,-6.653082847595214844e+00,-6.748248100280761719e+00,-6.722412109375000000e+00,-6.707833290100097656e+00,-6.735429286956787109e+00,-6.693187236785888672e+00,nan,-6.631865024566650391e+00,-6.622179985046386719e+00,-6.684143543243408203e+00,-6.680304527282714844e+00,-6.603106498718261719e+00,-6.566643238067626953e+00,-6.607270717620849609e+00,-6.360897541046142578e+00,-6.600859165191650391e+00,-6.592772960662841797e+00,-6.577462673187255859e+00,-6.554871559143066406e+00,-6.546100139617919922e+00,-6.467283725738525391e+00,-6.718680381774902344e+00,-6.502363681793212891e+00,-6.647852897644042969e+00,-6.459562778472900391e+00,-6.447876930236816406e+00,-6.452468395233154297e+00,-6.440469264984130859e+00,-6.623579502105712891e+00,-6.426100730895996094e+00,-6.423851966857910156e+00,nan,-6.563827514648437500e+00,-6.625458717346191406e+00,-6.566734790802001953e+00,-6.568935871124267578e+00,-6.557064056396484375e+00,-6.483203887939453125e+00,-6.519536018371582031e+00,nan,-6.415717601776123047e+00,-6.507327556610107422e+00,-6.486189365386962891e+00,-6.472164154052734375e+00,-6.376229286193847656e+00,-6.215546131134033203e+00,-6.297420978546142578e+00,-6.502328395843505859e+00,-6.442461013793945312e+00,-6.283507823944091797e+00,-6.501258373260498047e+00,-6.211370944976806641e+00,nan,nan,nan,nan,nan,nan,nan,-6.363853454589843750e+00,-6.481938362121582031e+00,-6.470633506774902344e+00,nan,-6.025654315948486328e+00,nan,-5.866403579711914062e+00,nan,nan,nan,nan,nan,nan,nan,nan,-6.566376686096191406e+00,nan,nan,-6.469707012176513672e+00,-6.467173099517822266e+00,nan,nan,nan,nan,nan,nan,-6.463150501251220703e+00,nan,nan,nan,nan,nan,nan,nan
-6.881303787231445312e+00,-7.607025146484375000e+00,-7.601099014282226562e+00,-7.641932964324951172e+00,-7.664487838745117188e+00,-7.644987106323242188e+00,-7.717201232910156250e+00,nan,-7.392182826995849609e+00,-7.438418388366699219e+00,-7.420124053955078125e+00,-7.213928699493408203e+00,-7.258778572082519531e+00,-7.237405776977539062e+00,-7.287583351135253906e+00,-6.940877914428710938e+00,nan,nan,-6.814449787139892578e+00,-6.822623252868652344e+00,-7.110013008117675781e+00,-7.084578514099121094e+00,-6.732919692993164062e+00,-6.733699321746826172e+00,-7.143778324127197266e+00,nan,nan,-6.749494075775146484e+00,-6.766695022583007812e+00,-6.762330055236816406e+00,-6.758158683776855469e+00,-6.943698883056640625e+00,-6.992286682128906250e+00,-7.043830394744873047e+00,nan,-7.103160381317138672e+00,-7.030052661895751953e+00,-6.781243324279785156e+00,-6.730435371398925781e+00,-6.790604591369628906e+00,-6.758320331573486328e+00,-6.750422000885009766e+00,nan,-6.746416568756103516e+00,-6.737796306610107422e+00,-6.733947277069091797e+00,-6.730022430419921875e+00,-6.712117195129394531e+00,nan,-6.798121452331542969e+00,nan,-6.686322212219238281e+00,-6.671149730682373047e+00,-6.698685169219970703e+00,-6.667637348175048828e+00,nan,-6.629772663116455078e+00,-6.612212181091308594e+00,-6.716842651367187500e+00,-6.710784912109375000e+00,-6.695609569549560547e+00,-6.916160106658935547e+00,-6.971784591674804688e+00,-7.012590885162353516e+00,-6.783193588256835938e+00,-6.757168769836425781e+00,-6.742183685302734375e+00,-6.736989974975585938e+00,-7.062856197357177734e+00,-6.730105876922607422e+00,-6.702761650085449219e+00,-6.684565067291259766e+00,-6.644694805145263672e+00,-6.701274394989013672e+00,-6.729341030120849609e+00,-6.707678318023681641e+00,-6.686628341674804688e+00,-6.699961662292480469e+00,-6.674583911895751953e+00,-6.649289131164550781e+00,-6.628588676452636719e+00,-6.615274429321289062e+00,-6.620872974395751953e+00,-6.612296581268310547e+00,-6.421369552612304688e+00,-6.524097919464111328e+00,-6.355737686157226562e+00,-6.352266788482666016e+00,-6.563565254211425781e+00,-6.546803474426269531e+00,-6.541143417358398438e+00,-6.550652503967285156e+00,-6.512430191040039062e+00,-6.509678840637207031e+00,-6.491372108459472656e+00,-6.468371868133544922e+00,-6.486003875732421875e+00,-6.363417148590087891e+00,-6.327661991119384766e+00,-6.600768089294433594e+00,-6.591785430908203125e+00,-6.592284202575683594e+00,-6.374065876007080078e+00,-6.336997985839843750e+00,-6.593752384185791016e+00,-6.591254234313964844e+00,-6.530835628509521484e+00,-6.588801860809326172e+00,-6.512297630310058594e+00,-6.495643138885498047e+00,-6.531340122222900391e+00,-6.441971302032470703e+00,nan,-6.487334251403808594e+00,nan,-6.463924407958984375e+00,nan,-6.460196018218994141e+00,-6.463380336761474609e+00,-6.461216926574707031e+00,-6.282243728637695312e+00,-6.438275814056396484e+00,-6.428620815277099609e+00,nan,-6.418058395385742188e+00,-6.430858612060546875e+00,nan,-6.327669143676757812e+00,-6.321687698364257812e+00,nan,-6.338891983032226562e+00,-6.354919910430908203e+00,nan,nan,nan,nan,nan,nan,nan,nan,-6.494280815124511719e+00,nan,nan,nan,nan,nan,nan,nan,nan,nan,nan,nan,nan,nan,nan,nan,nan,nan,nan,nan,nan,nan,nan,nan,nan
-7.603999137878417969e+00,-7.589629650115966797e+00,-7.600413322448730469e+00,-7.655346870422363281e+00,-7.643293380737304688e+00,-7.665838241577148438e+00,nan,-7.573859214782714844e+00,-7.439518451690673828e+00,-7.425904273986816406e+00,-7.186289787292480469e+00,-7.311457633972167969e+00,-7.230154037475585938e+00,-7.260128021240234375e+00,-6.922201156616210938e+00,-7.246523380279541016e+00,-6.931026458740234375e+00,-6.862600803375244141e+00,-6.857802867889404297e+00,-7.102696418762207031e+00,-7.078879833221435547e+00,-7.067520141601562500e+00,-6.728985786437988281e+00,-6.731007099151611328e+00,-7.065698623657226562e+00,-7.039512634277343750e+00,nan,nan,nan,-7.161902904510498047e+00,-6.995772361755371094e+00,-7.001295089721679688e+00,-7.073081016540527344e+00,-7.017724037170410156e+00,-7.042950153350830078e+00,-6.769547462463378906e+00,-6.753827095031738281e+00,-6.776795864105224609e+00,nan,-6.779882907867431641e+00,-6.746068954467773438e+00,-6.778683662414550781e+00,-6.748891830444335938e+00,-6.744167327880859375e+00,-6.726469516754150391e+00,-6.720103740692138672e+00,-6.713016510009765625e+00,-6.707547664642333984e+00,-6.873723506927490234e+00,nan,-6.823749542236328125e+00,-6.675484657287597656e+00,-6.710582733154296875e+00,-6.707190990447998047e+00,-6.702554702758789062e+00,-6.769171714782714844e+00,-6.720033645629882812e+00,-6.731295108795166016e+00,-6.648654460906982422e+00,-6.699173927307128906e+00,-6.699016094207763672e+00,-6.964302539825439453e+00,-6.761100769042968750e+00,-6.776668548583984375e+00,-6.677252769470214844e+00,-6.640839576721191406e+00,-6.644805431365966797e+00,-6.624140739440917969e+00,-6.720919132232666016e+00,-6.975156784057617188e+00,nan,nan,-7.026234149932861328e+00,-6.624714374542236328e+00,-6.726914405822753906e+00,-6.702650547027587891e+00,-6.698139190673828125e+00,-6.671467781066894531e+00,-6.657289505004882812e+00,nan,-6.620605945587158203e+00,-6.610437870025634766e+00,-6.592671394348144531e+00,-6.421485900878906250e+00,-6.409904956817626953e+00,-6.384305000305175781e+00,-6.371821403503417969e+00,-6.350737571716308594e+00,-6.550498008728027344e+00,-6.539420604705810547e+00,-6.499840736389160156e+00,-6.495289802551269531e+00,-6.492673873901367188e+00,-6.472645282745361328e+00,-6.439315795898437500e+00,-6.443062782287597656e+00,-6.384188652038574219e+00,-6.339300632476806641e+00,-6.324628353118896484e+00,-6.579635620117187500e+00,-6.433060646057128906e+00,-6.417132377624511719e+00,-6.199827671051025391e+00,-6.370529651641845703e+00,-6.480286598205566406e+00,-6.578425884246826172e+00,-6.564044475555419922e+00,-6.555158615112304688e+00,-6.556150436401367188e+00,-6.475780010223388672e+00,-6.516458988189697266e+00,-6.429983139038085938e+00,-6.474319458007812500e+00,nan,nan,-6.480648994445800781e+00,-6.376893520355224609e+00,-6.328392028808593750e+00,-6.478300094604492188e+00,-6.330326080322265625e+00,-6.357809066772460938e+00,-6.326673984527587891e+00,-6.404952049255371094e+00,-6.403735160827636719e+00,-6.383964061737060547e+00,-6.435812950134277344e+00,-6.428554534912109375e+00,nan,-6.342559337615966797e+00,-6.413307189941406250e+00,-6.320770263671875000e+00,-6.319475173950195312e+00,nan,nan,nan,nan,nan,nan,nan,nan,nan,nan,-6.397023200988769531e+00,nan,nan,nan,nan,nan,nan,nan,-6.323541641235351562e+00,nan,nan,nan,nan,nan,nan,nan,nan,nan,nan,nan,nan,-6.182481765747070312e+00,nan
