-7.125503063201904297e+00,-5.137701511383056641e+00,-7.097756385803222656e+00,-4.649028778076171875e+00,-4.640674591064453125e+00,-5.129508018493652344e+00,-4.635661125183105469e+00,-5.599476814270019531e+00,-5.426449298858642578e+00,-9.307265281677246094e+00,-9.520359039306640625e+00,nan,-9.462560653686523438e+00,-7.733636379241943359e+00,-7.722045898437500000e+00,nan,-8.209886550903320312e+00,-1.053339481353759766e+01,-1.055764102935791016e+01,-8.205510139465332031e+00,-8.163590431213378906e+00,-9.268793106079101562e+00,-3.840499401092529297e+00,-9.204475402832031250e+00,-8.281496047973632812e+00,-8.186236381530761719e+00,-8.193454742431640625e+00,-8.153810501098632812e+00,-5.696502208709716797e+00,-5.915928363800048828e+00,-4.695367336273193359e+00,-4.715459346771240234e+00,-4.985142707824707031e+00,-8.741322517395019531e+00,-8.723313331604003906e+00,-6.811624526977539062e+00,-6.302645683288574219e+00,-6.300814151763916016e+00,-4.943036079406738281e+00,-5.394078254699707031e+00,-5.833703041076660156e+00,-4.938358306884765625e+00,-4.937362670898437500e+00,-4.923366546630859375e+00,-3.526154756546020508e+00,nan,-8.767892837524414062e+00,-6.220655918121337891e+00,-7.980013847351074219e+00,-8.418418884277343750e+00,-8.413164138793945312e+00,-8.437281608581542969e+00,-8.461651802062988281e+00,-8.408980369567871094e+00,-8.479066848754882812e+00,-8.439493179321289062e+00,-8.442473411560058594e+00,-8.392541885375976562e+00,-8.022725105285644531e+00,-8.102386474609375000e+00,-9.548846244812011719e+00,-9.310941696166992188e+00,-9.007608413696289062e+00,-9.597912788391113281e+00,-8.651168823242187500e+00,-8.900324821472167969e+00,-9.060387611389160156e+00,-8.803004264831542969e+00,-8.993049621582031250e+00,-9.041392326354980469e+00,-9.587512969970703125e+00,-9.537868499755859375e+00,-9.442399024963378906e+00,-9.320172309875488281e+00,-8.903705596923828125e+00,-8.924338340759277344e+00,-9.303277015686035156e+00,-8.933573722839355469e+00,-8.997647285461425781e+00,-8.973531723022460938e+00,-9.161046981811523438e+00,-8.772348403930664062e+00,-8.788610458374023438e+00,-9.292833328247070312e+00,-9.027122497558593750e+00,-8.555477142333984375e+00,-8.526969909667968750e+00,-8.449756622314453125e+00,-8.474781036376953125e+00,-8.414324760437011719e+00,-8.386664390563964844e+00,-8.396873474121093750e+00,-8.563136100769042969e+00,-8.672302246093750000e+00,-8.646789550781250000e+00,-8.821161270141601562e+00,-8.868921279907226562e+00,-8.627423286437988281e+00,-8.519555091857910156e+00,-8.862284660339355469e+00,-8.811322212219238281e+00,-8.638954162597656250e+00,-8.592161178588867188e+00,-8.714102745056152344e+00,-8.647323608398437500e+00,-8.605778694152832031e+00,-8.589050292968750000e+00,-8.578958511352539062e+00,-8.560735702514648438e+00,-8.571535110473632812e+00,-8.499748229980468750e+00,-8.978761672973632812e+00,-8.534029960632324219e+00,-8.592235565185546875e+00,-8.466773986816406250e+00,-8.607463836669921875e+00,-8.477677345275878906e+00,-8.446689605712890625e+00,-8.388006210327148438e+00,-8.345139503479003906e+00,-8.376928329467773438e+00,-8.382462501525878906e+00,-8.394376754760742188e+00,-8.402200698852539062e+00,-8.379243850708007812e+00,-8.247186660766601562e+00,-8.299226760864257812e+00,-8.350425720214843750e+00,-8.325908660888671875e+00,-8.224302291870117188e+00,-8.162031173706054688e+00,-8.175860404968261719e+00,-8.141273498535156250e+00,nan,-8.120443344116210938e+00,-8.126674652099609375e+00,nan,-8.053623199462890625e+00,-8.023355484008789062e+00,-8.027202606201171875e+00,-8.095645904541015625e+00,-8.103601455688476562e+00,-8.107053756713867188e+00,-8.080029487609863281e+00,-8.086222648620605469e+00,-8.079359054565429688e+00,nan,-8.009101867675781250e+00,-7.955805301666259766e+00,nan,nan,nan,-7.124486446380615234e+00,nan,nan,nan,-7.172575950622558594e+00,-6.990921497344970703e+00,nan,-7.353449344635009766e+00,nan,nan,nan,nan,nan
-8.067790985107421875e+00,-3.158318042755126953e+00,-3.166171550750732422e+00,-7.096265792846679688e+00,-4.197464466094970703e+00,-4.198741436004638672e+00,-5.626448631286621094e+00,-5.628386497497558594e+00,-5.381846904754638672e+00,-5.289380073547363281e+00,nan,-9.170318603515625000e+00,-8.969225883483886719e+00,-8.955502510070800781e+00,nan,nan,-8.197083473205566406e+00,-8.276414871215820312e+00,-8.260728836059570312e+00,-8.253589630126953125e+00,-8.186152458190917969e+00,nan,-9.233393669128417969e+00,-9.246510505676269531e+00,-8.326266288757324219e+00,-8.369583129882812500e+00,-8.173915863037109375e+00,-5.734565734863281250e+00,-5.768909454345703125e+00,-8.126194000244140625e+00,-4.718390464782714844e+00,-5.032365798950195312e+00,-5.268370151519775391e+00,-5.455979347229003906e+00,-7.278303146362304688e+00,-5.011286735534667969e+00,-6.317731380462646484e+00,-6.742129802703857422e+00,-5.235127925872802734e+00,-6.273603916168212891e+00,-5.256180763244628906e+00,-5.400495529174804688e+00,-4.942079544067382812e+00,-4.936834335327148438e+00,-3.871309041976928711e+00,-8.753111839294433594e+00,-8.824349403381347656e+00,-8.374783515930175781e+00,-8.375184059143066406e+00,-6.961845397949218750e+00,-7.955100536346435547e+00,-7.959024906158447266e+00,-8.457449913024902344e+00,-8.562747955322265625e+00,-8.618368148803710938e+00,-8.811546325683593750e+00,-8.930468559265136719e+00,-8.050086021423339844e+00,-9.561051368713378906e+00,-9.903062820434570312e+00,-9.446777343750000000e+00,-9.671974182128906250e+00,-9.581250190734863281e+00,-9.553195953369140625e+00,-9.518473625183105469e+00,-9.395540237426757812e+00,-9.063672065734863281e+00,-9.097439765930175781e+00,-8.991056442260742188e+00,-9.082084655761718750e+00,-9.315797805786132812e+00,-9.256730079650878906e+00,-8.915349006652832031e+00,-9.361565589904785156e+00,-8.971594810485839844e+00,-8.925117492675781250e+00,-8.948674201965332031e+00,-8.538702964782714844e+00,-8.920753479003906250e+00,-9.000261306762695312e+00,-9.121250152587890625e+00,-8.807826995849609375e+00,-8.576951026916503906e+00,-8.583430290222167969e+00,-9.083330154418945312e+00,-8.514723777770996094e+00,-8.926155090332031250e+00,-8.496585845947265625e+00,-8.446840286254882812e+00,-8.424745559692382812e+00,-8.347771644592285156e+00,-8.389767646789550781e+00,-8.556631088256835938e+00,-8.699804306030273438e+00,-8.645876884460449219e+00,-8.687849998474121094e+00,-8.664988517761230469e+00,-8.531681060791015625e+00,-8.536417961120605469e+00,-8.787160873413085938e+00,-8.579246520996093750e+00,-8.848030090332031250e+00,-8.776028633117675781e+00,-8.730965614318847656e+00,-8.631481170654296875e+00,-8.708771705627441406e+00,-8.683160781860351562e+00,-8.665365219116210938e+00,-8.580760955810546875e+00,-8.572856903076171875e+00,-8.578037261962890625e+00,-8.514945030212402344e+00,-8.514002799987792969e+00,-8.575640678405761719e+00,-8.562764167785644531e+00,-8.582624435424804688e+00,-8.464714050292968750e+00,-8.512675285339355469e+00,-8.447390556335449219e+00,-8.466853141784667969e+00,-8.397966384887695312e+00,-8.377347946166992188e+00,-8.414649009704589844e+00,-8.381548881530761719e+00,-8.384508132934570312e+00,-8.332735061645507812e+00,-8.340877532958984375e+00,-8.291629791259765625e+00,-8.288499832153320312e+00,-8.281234741210937500e+00,-8.135213851928710938e+00,-8.106507301330566406e+00,-8.233690261840820312e+00,-8.235752105712890625e+00,-8.180546760559082031e+00,-8.130265235900878906e+00,-8.170547485351562500e+00,nan,-8.110910415649414062e+00,-8.109621047973632812e+00,-7.986900329589843750e+00,-8.088054656982421875e+00,-8.052381515502929688e+00,-8.027011871337890625e+00,-8.049562454223632812e+00,-8.048595428466796875e+00,-7.985312461853027344e+00,-8.021528244018554688e+00,-8.035480499267578125e+00,nan,nan,nan,nan,nan,-7.160923480987548828e+00,-7.203458309173583984e+00,-7.263290882110595703e+00,nan,nan,-7.225499629974365234e+00,nan,nan,nan,nan,nan
-8.088167190551757812e+00,-8.087024688720703125e+00,-4.219109535217285156e+00,-4.212175369262695312e+00,-4.212664604187011719e+00,-4.211725234985351562e+00,-5.748650550842285156e+00,-5.638561725616455078e+00,-5.460225582122802734e+00,-5.364788055419921875e+00,nan,-1.011758899688720703e+01,-8.935327529907226562e+00,-9.013856887817382812e+00,-9.479158401489257812e+00,-8.346421241760253906e+00,-8.298001289367675781e+00,-8.275192260742187500e+00,-8.257199287414550781e+00,-8.221988677978515625e+00,-8.149999618530273438e+00,-9.231938362121582031e+00,-8.428290367126464844e+00,-9.255756378173828125e+00,-8.198024749755859375e+00,-8.558489799499511719e+00,-5.808017730712890625e+00,-8.365865707397460938e+00,-8.177474975585937500e+00,-5.728269100189208984e+00,-5.504938125610351562e+00,-4.759940624237060547e+00,-8.910951614379882812e+00,-5.490407466888427734e+00,-5.488081932067871094e+00,-6.333976745605468750e+00,-5.459021568298339844e+00,-5.289227485656738281e+00,-8.720155715942382812e+00,-6.254277229309082031e+00,-6.294275760650634766e+00,-5.216276168823242188e+00,nan,-9.778785705566406250e+00,-8.711335182189941406e+00,-8.795819282531738281e+00,-8.432047843933105469e+00,-8.396013259887695312e+00,-6.674647331237792969e+00,-7.951192855834960938e+00,-7.950878143310546875e+00,-7.951797008514404297e+00,-7.950919628143310547e+00,-8.858414649963378906e+00,-8.862798690795898438e+00,-8.929065704345703125e+00,-9.189426422119140625e+00,-8.186135292053222656e+00,-8.838458061218261719e+00,-9.046081542968750000e+00,-9.495409965515136719e+00,-9.772533416748046875e+00,-9.518774032592773438e+00,-9.460967063903808594e+00,-9.496377944946289062e+00,-8.876001358032226562e+00,-9.340355873107910156e+00,-9.409623146057128906e+00,-9.450393676757812500e+00,-8.858606338500976562e+00,-9.347075462341308594e+00,-9.349555969238281250e+00,-9.338960647583007812e+00,-8.728215217590332031e+00,-8.830006599426269531e+00,-8.956568717956542969e+00,-8.907585144042968750e+00,-8.544167518615722656e+00,-9.231220245361328125e+00,-8.964866638183593750e+00,-9.062941551208496094e+00,-9.115307807922363281e+00,-8.747431755065917969e+00,-9.080630302429199219e+00,-8.952543258666992188e+00,-8.614795684814453125e+00,-8.404403686523437500e+00,-8.478921890258789062e+00,-8.540122032165527344e+00,-8.481030464172363281e+00,-8.457710266113281250e+00,-8.541198730468750000e+00,-8.982762336730957031e+00,-8.805588722229003906e+00,-8.626228332519531250e+00,-8.834985733032226562e+00,-8.726209640502929688e+00,-8.806388854980468750e+00,-8.720637321472167969e+00,-8.748264312744140625e+00,-8.746137619018554688e+00,-8.821564674377441406e+00,-8.596097946166992188e+00,-8.697848320007324219e+00,-8.639546394348144531e+00,-8.671325683593750000e+00,-8.564695358276367188e+00,-8.653141975402832031e+00,-8.623686790466308594e+00,-8.599965095520019531e+00,-8.603843688964843750e+00,-8.577577590942382812e+00,-8.534837722778320312e+00,-8.549950599670410156e+00,-8.494274139404296875e+00,-8.388134002685546875e+00,-8.442516326904296875e+00,-8.342976570129394531e+00,-8.406846046447753906e+00,-8.280437469482421875e+00,-8.394591331481933594e+00,-8.377779960632324219e+00,-8.276293754577636719e+00,-8.417219161987304688e+00,-8.354483604431152344e+00,-8.361106872558593750e+00,-8.356887817382812500e+00,-8.151815414428710938e+00,-8.338647842407226562e+00,-8.328339576721191406e+00,-8.340050697326660156e+00,-8.133756637573242188e+00,-8.177350044250488281e+00,-8.064900398254394531e+00,-8.185966491699218750e+00,-8.154124259948730469e+00,-8.130810737609863281e+00,-7.995847702026367188e+00,-8.114615440368652344e+00,-8.142618179321289062e+00,-7.970116138458251953e+00,-7.943542003631591797e+00,-8.012551307678222656e+00,-8.048693656921386719e+00,-7.996687412261962891e+00,-8.030839920043945312e+00,-8.033132553100585938e+00,-8.017912864685058594e+00,nan,-7.154190063476562500e+00,nan,nan,-7.146320343017578125e+00,nan,-7.177410125732421875e+00,-7.144444942474365234e+00,-7.280829906463623047e+00,nan,nan,-7.244049072265625000e+00,nan,nan,nan,nan,nan
-3.232923030853271484e+00,-8.089669227600097656e+00,-8.293343544006347656e+00,-3.046960830688476562e+00,-4.080339908599853516e+00,-4.073066711425781250e+00,-4.066378593444824219e+00,-8.427919387817382812e+00,-1.038564491271972656e+01,-1.043968200683593750e+01,-1.013027191162109375e+01,-9.412624359130859375e+00,-1.033488464355468750e+01,-8.481440544128417969e+00,-8.424406051635742188e+00,-8.324515342712402344e+00,-8.285040855407714844e+00,-8.463245391845703125e+00,-8.138702392578125000e+00,-8.474416732788085938e+00,nan,-8.644639968872070312e+00,-8.578814506530761719e+00,-8.666833877563476562e+00,-8.596641540527343750e+00,-8.591101646423339844e+00,-8.142104148864746094e+00,-8.131519317626953125e+00,-5.970811843872070312e+00,-8.858007431030273438e+00,-8.678564071655273438e+00,-4.809063911437988281e+00,-8.814566612243652344e+00,-9.446805953979492188e+00,-5.495343208312988281e+00,-5.062296867370605469e+00,-5.487883567810058594e+00,-5.485755443572998047e+00,-5.370597839355468750e+00,-5.468083858489990234e+00,-7.143562316894531250e+00,-8.313053131103515625e+00,-9.657386779785156250e+00,-8.819188117980957031e+00,-8.953659057617187500e+00,-8.689137458801269531e+00,-8.631575584411621094e+00,-6.683807849884033203e+00,-7.950652122497558594e+00,-7.947653770446777344e+00,-7.806013107299804688e+00,-7.975097656250000000e+00,-7.968842506408691406e+00,-8.906908035278320312e+00,-8.918922424316406250e+00,-9.123930931091308594e+00,-9.166915893554687500e+00,-9.152844429016113281e+00,-9.382244110107421875e+00,-8.944765090942382812e+00,-9.695844650268554688e+00,-9.354342460632324219e+00,-9.122787475585937500e+00,-8.775503158569335938e+00,-8.848671913146972656e+00,-9.005251884460449219e+00,-9.341813087463378906e+00,-8.893234252929687500e+00,-8.930545806884765625e+00,-8.969664573669433594e+00,-9.281434059143066406e+00,-8.889108657836914062e+00,-9.412055969238281250e+00,-8.937442779541015625e+00,-8.931724548339843750e+00,-8.926877021789550781e+00,-8.913822174072265625e+00,-8.892358779907226562e+00,-8.544702529907226562e+00,-9.160381317138671875e+00,-9.249951362609863281e+00,-8.714036941528320312e+00,-8.665941238403320312e+00,-9.252608299255371094e+00,-8.503892898559570312e+00,-8.468177795410156250e+00,-8.478717803955078125e+00,-8.502098083496093750e+00,-8.468694686889648438e+00,-8.550359725952148438e+00,-8.484796524047851562e+00,-8.583374023437500000e+00,-8.575489997863769531e+00,-8.627502441406250000e+00,-8.744320869445800781e+00,-8.718445777893066406e+00,-8.760989189147949219e+00,-8.751459121704101562e+00,-8.823378562927246094e+00,-8.822916030883789062e+00,-8.800869941711425781e+00,-8.663847923278808594e+00,-8.644586563110351562e+00,-8.706056594848632812e+00,-8.555774688720703125e+00,-8.486139297485351562e+00,-8.548862457275390625e+00,-8.613853454589843750e+00,-8.591904640197753906e+00,-8.609180450439453125e+00,-8.487123489379882812e+00,-8.529424667358398438e+00,-8.550992965698242188e+00,-8.530339241027832031e+00,-8.526943206787109375e+00,-8.420166015625000000e+00,-8.406495094299316406e+00,-8.487504005432128906e+00,-8.437536239624023438e+00,-8.396810531616210938e+00,-8.365326881408691406e+00,-8.373766899108886719e+00,-8.341672897338867188e+00,-8.316082000732421875e+00,-8.307465553283691406e+00,-8.270214080810546875e+00,-8.259149551391601562e+00,-8.284503936767578125e+00,-8.248451232910156250e+00,-8.246475219726562500e+00,-8.097037315368652344e+00,-8.080165863037109375e+00,-8.087405204772949219e+00,nan,-8.099061012268066406e+00,-8.135423660278320312e+00,nan,nan,-7.999365806579589844e+00,-7.973774909973144531e+00,-8.008071899414062500e+00,-7.921022891998291016e+00,-7.921230792999267578e+00,-7.988293170928955078e+00,-7.964705944061279297e+00,-8.010727882385253906e+00,-7.966606140136718750e+00,nan,nan,nan,nan,-7.163019180297851562e+00,-7.187257289886474609e+00,nan,-7.326193809509277344e+00,nan,-7.371788024902343750e+00,nan,nan,nan,nan,nan,nan,nan,nan
-3.237662315368652344e+00,-3.289062976837158203e+00,-3.158691406250000000e+00,-4.251588821411132812e+00,-4.080041885375976562e+00,-4.032654285430908203e+00,-4.054088592529296875e+00,nan,-8.577198028564453125e+00,-1.044107913970947266e+01,-1.029899311065673828e+01,-8.804821014404296875e+00,-1.030743217468261719e+01,-8.820730209350585938e+00,-9.143302917480468750e+00,-8.290644645690917969e+00,-8.754859924316406250e+00,-8.511988639831542969e+00,-1.077605628967285156e+01,-8.463795661926269531e+00,-8.569162368774414062e+00,-8.599404335021972656e+00,-8.605772972106933594e+00,-8.599440574645996094e+00,-8.194101333618164062e+00,-8.141516685485839844e+00,-8.133987426757812500e+00,-8.137840270996093750e+00,-9.251982688903808594e+00,-5.559222221374511719e+00,-8.756041526794433594e+00,-5.829210758209228516e+00,-9.654563903808593750e+00,-9.538085937500000000e+00,-5.087470531463623047e+00,-5.084278106689453125e+00,-6.158185005187988281e+00,-5.504048347473144531e+00,-5.489958763122558594e+00,-5.485896587371826172e+00,-4.108824253082275391e+00,-7.179824829101562500e+00,-1.012040138244628906e+01,-6.657209873199462891e+00,-3.955927133560180664e+00,-9.303795814514160156e+00,-8.554356575012207031e+00,-7.731082439422607422e+00,-8.968074798583984375e+00,-7.536282539367675781e+00,-7.518333911895751953e+00,-8.918249130249023438e+00,-8.904918670654296875e+00,-9.060320854187011719e+00,-9.119228363037109375e+00,-9.138660430908203125e+00,-9.174465179443359375e+00,-9.508800506591796875e+00,-9.821310043334960938e+00,-9.232906341552734375e+00,-9.402688026428222656e+00,-9.610164642333984375e+00,-9.659942626953125000e+00,-9.390387535095214844e+00,-8.881445884704589844e+00,-8.843930244445800781e+00,-8.899877548217773438e+00,-8.984005928039550781e+00,-8.957659721374511719e+00,-9.002796173095703125e+00,-8.359256744384765625e+00,-9.592214584350585938e+00,-9.584933280944824219e+00,-9.469464302062988281e+00,-9.164753913879394531e+00,-9.170498847961425781e+00,-8.916938781738281250e+00,-8.924793243408203125e+00,-8.916368484497070312e+00,-8.921859741210937500e+00,-8.945049285888671875e+00,-8.863121986389160156e+00,-8.726129531860351562e+00,-8.761096000671386719e+00,-8.594952583312988281e+00,-8.607178688049316406e+00,-8.500699043273925781e+00,-8.470196723937988281e+00,-8.515425682067871094e+00,-8.503335952758789062e+00,-9.002332687377929688e+00,-8.590665817260742188e+00,-8.561231613159179688e+00,-8.839561462402343750e+00,-8.774318695068359375e+00,-8.695662498474121094e+00,-8.811515808105468750e+00,nan,-8.818153381347656250e+00,-8.676657676696777344e+00,-8.680485725402832031e+00,-8.783537864685058594e+00,-8.636346817016601562e+00,-8.664868354797363281e+00,-8.659933090209960938e+00,-8.664079666137695312e+00,-8.553587913513183594e+00,-8.549502372741699219e+00,-8.489891052246093750e+00,-8.602161407470703125e+00,-8.513001441955566406e+00,-8.460272789001464844e+00,-8.512849807739257812e+00,-8.481258392333984375e+00,-8.475401878356933594e+00,-8.458655357360839844e+00,-8.412616729736328125e+00,-8.445061683654785156e+00,-8.272518157958984375e+00,-8.346397399902343750e+00,-8.329360961914062500e+00,-8.334285736083984375e+00,-8.305887222290039062e+00,-8.318979263305664062e+00,-8.244850158691406250e+00,-8.257910728454589844e+00,-8.251770973205566406e+00,-8.236431121826171875e+00,-8.136565208435058594e+00,-8.199512481689453125e+00,-8.225179672241210938e+00,-8.180256843566894531e+00,-8.033278465270996094e+00,-8.144485473632812500e+00,-8.010025978088378906e+00,-8.139100074768066406e+00,-8.116065025329589844e+00,-8.029125213623046875e+00,-8.052219390869140625e+00,-8.070898056030273438e+00,-7.956129550933837891e+00,-7.917806625366210938e+00,-7.941984653472900391e+00,nan,nan,-7.967720985412597656e+00,-7.996893882751464844e+00,-7.992468357086181641e+00,nan,-7.167155742645263672e+00,nan,-7.286469936370849609e+00,-7.050065040588378906e+00,-7.353477001190185547e+00,-7.351836204528808594e+00,nan,nan,nan,nan,nan,nan,nan,nan,nan,nan
-3.053590297698974609e+00,-3.311550617218017578e+00,-3.105191707611083984e+00,-3.043169498443603516e+00,-4.059371948242187500e+00,-3.854779958724975586e+00,-8.456974029541015625e+00,-8.425851821899414062e+00,-8.552406311035156250e+00,-1.045097351074218750e+01,nan,-8.862570762634277344e+00,-9.603524208068847656e+00,-9.332388877868652344e+00,-8.560516357421875000e+00,-8.688848495483398438e+00,-8.611882209777832031e+00,-8.679885864257812500e+00,-9.005348205566406250e+00,-8.994309425354003906e+00,-8.644950866699218750e+00,-8.621435165405273438e+00,-8.602941513061523438e+00,-8.468568801879882812e+00,-8.160690307617187500e+00,-8.135344505310058594e+00,-8.134412765502929688e+00,-8.535829544067382812e+00,-8.515183448791503906e+00,-8.505881309509277344e+00,-8.508145332336425781e+00,-9.042352676391601562e+00,-9.377502441406250000e+00,-9.196286201477050781e+00,-5.696217536926269531e+00,-5.706506252288818359e+00,-5.393435478210449219e+00,-5.522271156311035156e+00,-5.519903182983398438e+00,-5.644263267517089844e+00,-5.631872177124023438e+00,-1.017949295043945312e+01,-3.304834365844726562e+00,-9.891760826110839844e+00,-4.037606239318847656e+00,-9.449455261230468750e+00,-7.778303623199462891e+00,-9.018086433410644531e+00,-7.421813011169433594e+00,-7.517589569091796875e+00,-7.514910697937011719e+00,-8.914129257202148438e+00,-9.043348312377929688e+00,-9.095370292663574219e+00,-9.229784011840820312e+00,-9.208878517150878906e+00,-9.306696891784667969e+00,-9.760473251342773438e+00,-9.548336982727050781e+00,-9.717054367065429688e+00,-9.806383132934570312e+00,-9.656831741333007812e+00,-8.997107505798339844e+00,-9.291227340698242188e+00,-8.545301437377929688e+00,-9.251415252685546875e+00,-8.492847442626953125e+00,-8.859292984008789062e+00,-9.080849647521972656e+00,-8.867849349975585938e+00,-8.490615844726562500e+00,-8.849003791809082031e+00,nan,-9.253535270690917969e+00,-9.378537178039550781e+00,-9.165144920349121094e+00,-9.245036125183105469e+00,nan,nan,-8.892370223999023438e+00,-8.873573303222656250e+00,-8.929049491882324219e+00,-8.786241531372070312e+00,-8.499281883239746094e+00,-8.605258941650390625e+00,-8.514459609985351562e+00,-8.500789642333984375e+00,-8.502533912658691406e+00,-8.756680488586425781e+00,-8.572561264038085938e+00,-8.915961265563964844e+00,-8.692430496215820312e+00,-8.615291595458984375e+00,-8.796280860900878906e+00,-8.605944633483886719e+00,-8.680064201354980469e+00,-8.682178497314453125e+00,-8.698619842529296875e+00,-8.683558464050292969e+00,-8.670562744140625000e+00,-8.674627304077148438e+00,-8.764595031738281250e+00,-8.768713951110839844e+00,-8.501130104064941406e+00,-8.635787010192871094e+00,-8.648289680480957031e+00,-8.531484603881835938e+00,-8.517793655395507812e+00,-8.578636169433593750e+00,-8.598670959472656250e+00,-8.548472404479980469e+00,-8.495257377624511719e+00,-8.409422874450683594e+00,-8.401468276977539062e+00,-8.396883010864257812e+00,-8.397052764892578125e+00,-8.350912094116210938e+00,-8.422325134277343750e+00,-8.401457786560058594e+00,-8.358107566833496094e+00,-8.337604522705078125e+00,-8.323755264282226562e+00,-8.286753654479980469e+00,-8.262005805969238281e+00,-8.255450248718261719e+00,-8.270967483520507812e+00,-8.228861808776855469e+00,-8.222730636596679688e+00,-8.221276283264160156e+00,-8.097274780273437500e+00,-8.141317367553710938e+00,-8.157688140869140625e+00,-8.000997543334960938e+00,-8.086170196533203125e+00,-8.120047569274902344e+00,-8.076042175292968750e+00,-7.938219547271728516e+00,-8.052936553955078125e+00,-7.974340438842773438e+00,-7.992676734924316406e+00,-7.988144874572753906e+00,-7.982252120971679688e+00,-7.817089080810546875e+00,nan,nan,-7.967273235321044922e+00,-7.997124671936035156e+00,-7.996245384216308594e+00,-7.976032257080078125e+00,-7.237254142761230469e+00,nan,-7.354043960571289062e+00,-7.070584297180175781e+00,-7.372282981872558594e+00,nan,nan,nan,nan,nan,nan,nan,nan,nan,nan,nan
-3.279232025146484375e+00,-3.077895164489746094e+00,-3.093423366546630859e+00,-3.041370391845703125e+00,-2.914739131927490234e+00,-3.866200923919677734e+00,nan,nan,-9.865545272827148438e+00,-8.612146377563476562e+00,-9.428707122802734375e+00,-9.123604774475097656e+00,-8.731832504272460938e+00,-8.710931777954101562e+00,-8.661325454711914062e+00,-8.719432830810546875e+00,-8.673965454101562500e+00,-8.665595054626464844e+00,-8.471401214599609375e+00,-8.528033256530761719e+00,-9.473050117492675781e+00,-8.603925704956054688e+00,-8.589594841003417969e+00,-8.582219123840332031e+00,-8.200840950012207031e+00,-8.548282623291015625e+00,-8.536052703857421875e+00,-8.523852348327636719e+00,-8.511410713195800781e+00,-8.492289543151855469e+00,-8.480071067810058594e+00,-8.535988807678222656e+00,-9.208205223083496094e+00,-6.948039531707763672e+00,-5.722096920013427734e+00,-8.521779060363769531e+00,-5.487721920013427734e+00,-5.542536258697509766e+00,-5.528761863708496094e+00,-5.521842002868652344e+00,-5.920696258544921875e+00,-6.492959022521972656e+00,-3.873867750167846680e+00,-5.477223873138427734e+00,-3.897319555282592773e+00,-3.813943624496459961e+00,-8.960086822509765625e+00,-9.070415496826171875e+00,-9.107604026794433594e+00,-9.096675872802734375e+00,-7.502933502197265625e+00,-7.516872882843017578e+00,-9.208001136779785156e+00,-9.233656883239746094e+00,-9.392863273620605469e+00,-9.378374099731445312e+00,-9.586488723754882812e+00,-9.780378341674804688e+00,-9.574359893798828125e+00,-9.184938430786132812e+00,-9.784916877746582031e+00,-9.790138244628906250e+00,-9.788086891174316406e+00,-8.595319747924804688e+00,-8.803540229797363281e+00,-9.244298934936523438e+00,-8.732496261596679688e+00,-8.994771957397460938e+00,-8.621100425720214844e+00,-8.213715553283691406e+00,-8.982037544250488281e+00,-9.037407875061035156e+00,-9.336124420166015625e+00,nan,nan,-8.974363327026367188e+00,-8.915748596191406250e+00,-8.940623283386230469e+00,-9.270165443420410156e+00,-8.827647209167480469e+00,-8.874585151672363281e+00,-8.826825141906738281e+00,-8.430861473083496094e+00,-8.708458900451660156e+00,-8.475800514221191406e+00,-8.478177070617675781e+00,-8.489786148071289062e+00,-8.498610496520996094e+00,-8.773655891418457031e+00,-8.499866485595703125e+00,-8.784212112426757812e+00,-8.623682975769042969e+00,-8.709156990051269531e+00,-8.518667221069335938e+00,-8.587471008300781250e+00,-8.654314994812011719e+00,-8.294587135314941406e+00,-8.762755393981933594e+00,-8.751497268676757812e+00,-8.696739196777343750e+00,-8.700952529907226562e+00,-8.710270881652832031e+00,-8.728765487670898438e+00,-8.519795417785644531e+00,-8.530906677246093750e+00,-8.497648239135742188e+00,-8.497577667236328125e+00,-8.545204162597656250e+00,-8.553630828857421875e+00,-8.567415237426757812e+00,-8.545478820800781250e+00,-8.470559120178222656e+00,-8.492316246032714844e+00,-8.438462257385253906e+00,-8.436650276184082031e+00,-8.370472908020019531e+00,-8.408445358276367188e+00,-8.441212654113769531e+00,-8.372695922851562500e+00,-8.349262237548828125e+00,-8.312487602233886719e+00,-8.308471679687500000e+00,-8.322908401489257812e+00,-8.271825790405273438e+00,-8.293557167053222656e+00,-8.222420692443847656e+00,-8.249175071716308594e+00,-8.053012847900390625e+00,-8.105453491210937500e+00,-8.176199913024902344e+00,-8.151436805725097656e+00,-8.117674827575683594e+00,-8.010226249694824219e+00,-8.068952560424804688e+00,-8.098690986633300781e+00,-8.124088287353515625e+00,-7.912869930267333984e+00,-7.705245971679687500e+00,-7.482024669647216797e+00,-7.970679283142089844e+00,-7.938808917999267578e+00,nan,nan,-8.017630577087402344e+00,nan,nan,nan,-7.909421920776367188e+00,-7.870554447174072266e+00,-7.335442543029785156e+00,nan,-7.370679378509521484e+00,nan,nan,nan,nan,nan,nan,nan,nan,nan,nan,nan,nan,nan
-3.311959743499755859e+00,-3.136949539184570312e+00,-2.955203056335449219e+00,-2.944780349731445312e+00,-2.942175865173339844e+00,-8.496763229370117188e+00,-8.629007339477539062e+00,-8.626039505004882812e+00,-9.613284111022949219e+00,-8.617677688598632812e+00,-9.421095848083496094e+00,-9.763589859008789062e+00,-8.925228118896484375e+00,-8.375712394714355469e+00,-9.562941551208496094e+00,-8.660065650939941406e+00,-8.669598579406738281e+00,-8.652296066284179688e+00,-9.205073356628417969e+00,-9.414450645446777344e+00,-8.617692947387695312e+00,-8.595196723937988281e+00,-8.575955390930175781e+00,-8.711109161376953125e+00,-8.487630844116210938e+00,-9.449432373046875000e+00,-8.521949768066406250e+00,-8.504646301269531250e+00,-8.485082626342773438e+00,-8.471521377563476562e+00,-8.472859382629394531e+00,-9.225760459899902344e+00,-9.087314605712890625e+00,-9.030338287353515625e+00,-7.714493751525878906e+00,-6.100424289703369141e+00,-7.099349021911621094e+00,-5.435438156127929688e+00,-7.708063602447509766e+00,-7.216103076934814453e+00,-6.881357669830322266e+00,-6.682911396026611328e+00,-4.551033496856689453e+00,-5.056881904602050781e+00,-4.716849327087402344e+00,-5.001266479492187500e+00,-4.669536590576171875e+00,-9.168165206909179688e+00,-9.237830162048339844e+00,-9.208438873291015625e+00,-9.385285377502441406e+00,-9.194891929626464844e+00,-9.094482421875000000e+00,-9.195111274719238281e+00,-9.373298645019531250e+00,-9.497047424316406250e+00,-9.699817657470703125e+00,-9.700854301452636719e+00,-9.646368026733398438e+00,-9.739533424377441406e+00,-9.104021072387695312e+00,-8.669082641601562500e+00,-8.902966499328613281e+00,-8.783661842346191406e+00,-8.672516822814941406e+00,-9.042987823486328125e+00,-8.341390609741210938e+00,-8.908579826354980469e+00,-8.949887275695800781e+00,-8.968611717224121094e+00,-8.910356521606445312e+00,nan,nan,-9.320869445800781250e+00,-9.315956115722656250e+00,-8.949633598327636719e+00,-9.175320625305175781e+00,nan,nan,-8.676263809204101562e+00,-8.931780815124511719e+00,-8.484228134155273438e+00,-8.903356552124023438e+00,-9.062183380126953125e+00,-8.477118492126464844e+00,-8.519262313842773438e+00,-8.902748107910156250e+00,-8.647447586059570312e+00,-8.937191009521484375e+00,-8.567746162414550781e+00,-8.648688316345214844e+00,-8.888024330139160156e+00,-8.706692695617675781e+00,-8.527935981750488281e+00,-8.574274063110351562e+00,-8.598062515258789062e+00,-8.333540916442871094e+00,-8.630399703979492188e+00,-8.766291618347167969e+00,-8.752782821655273438e+00,-8.690682411193847656e+00,-8.703354835510253906e+00,-8.566264152526855469e+00,-8.676332473754882812e+00,-8.509330749511718750e+00,-8.502952575683593750e+00,-8.616376876831054688e+00,-8.455232620239257812e+00,-8.401619911193847656e+00,-8.529015541076660156e+00,-8.521571159362792969e+00,-8.490123748779296875e+00,-8.376854896545410156e+00,-8.442471504211425781e+00,-8.463924407958984375e+00,-8.416707992553710938e+00,-8.386669158935546875e+00,-8.317527770996093750e+00,-8.368242263793945312e+00,-8.340600967407226562e+00,-8.247285842895507812e+00,-8.284006118774414062e+00,-8.199913978576660156e+00,-8.197504043579101562e+00,-8.224649429321289062e+00,-8.152588844299316406e+00,-8.182651519775390625e+00,-8.206053733825683594e+00,-8.215700149536132812e+00,-8.180378913879394531e+00,-8.144853591918945312e+00,-8.125160217285156250e+00,-8.068378448486328125e+00,-8.056817054748535156e+00,-8.087897300720214844e+00,-7.946339607238769531e+00,-7.905591964721679688e+00,-8.007980346679687500e+00,-7.969295978546142578e+00,-7.968920707702636719e+00,-7.960481166839599609e+00,-7.962569713592529297e+00,-7.968138217926025391e+00,nan,-7.946102142333984375e+00,-7.158786296844482422e+00,-7.873586177825927734e+00,-7.321055889129638672e+00,nan,-7.362091541290283203e+00,nan,-7.387373447418212891e+00,nan,nan,nan,nan,nan,nan,nan,nan,nan,nan,nan,nan,nan
-3.196769237518310547e+00,-3.187038898468017578e+00,-2.970014095306396484e+00,-2.952698230743408203e+00,-2.677266597747802734e+00,-8.447596549987792969e+00,-8.442583084106445312e+00,-8.654922485351562500e+00,-8.645901679992675781e+00,-9.381711959838867188e+00,-8.857018470764160156e+00,-8.853520393371582031e+00,-8.598320007324218750e+00,-8.712488174438476562e+00,-8.682613372802734375e+00,-8.676750183105468750e+00,-8.694005012512207031e+00,-9.354265213012695312e+00,-9.286586761474609375e+00,-8.706184387207031250e+00,-8.590917587280273438e+00,-9.482719421386718750e+00,-8.958813667297363281e+00,-8.906439781188964844e+00,-8.549675941467285156e+00,-8.788199424743652344e+00,-8.529453277587890625e+00,-8.496002197265625000e+00,-8.476479530334472656e+00,-8.476506233215332031e+00,-8.486712455749511719e+00,-9.330328941345214844e+00,-9.111923217773437500e+00,-8.151325225830078125e+00,-7.890332698822021484e+00,-8.008286476135253906e+00,-5.500938415527343750e+00,-7.011114120483398438e+00,-6.829140663146972656e+00,-6.098790168762207031e+00,-5.386599540710449219e+00,-4.876509189605712891e+00,-5.276164054870605469e+00,-5.466718673706054688e+00,-4.695222854614257812e+00,-9.611490249633789062e+00,-9.645332336425781250e+00,-9.429693222045898438e+00,-9.525037765502929688e+00,-9.320796966552734375e+00,-9.492589950561523438e+00,-9.218887329101562500e+00,-9.599864006042480469e+00,-9.734512329101562500e+00,nan,-8.816219329833984375e+00,-8.740341186523437500e+00,-8.549360275268554688e+00,-9.444252014160156250e+00,-9.119689941406250000e+00,-8.930919647216796875e+00,-8.705729484558105469e+00,-8.860652923583984375e+00,-8.793323516845703125e+00,-8.791448593139648438e+00,-9.267181396484375000e+00,-9.045925140380859375e+00,-8.821685791015625000e+00,-8.097240447998046875e+00,-9.380473136901855469e+00,-8.894377708435058594e+00,-9.196927070617675781e+00,-9.351313591003417969e+00,-9.273712158203125000e+00,-8.935450553894042969e+00,-8.951249122619628906e+00,-8.908615112304687500e+00,-8.936274528503417969e+00,-8.507929801940917969e+00,-8.789935111999511719e+00,-8.262559890747070312e+00,-8.848635673522949219e+00,-8.500641822814941406e+00,-9.260277748107910156e+00,-8.490708351135253906e+00,-8.612143516540527344e+00,-8.574869155883789062e+00,nan,nan,-8.864503860473632812e+00,-8.673844337463378906e+00,-8.623781204223632812e+00,-8.649353027343750000e+00,-8.592631340026855469e+00,-8.571097373962402344e+00,-8.707143783569335938e+00,-8.656991004943847656e+00,-8.648058891296386719e+00,-8.641209602355957031e+00,-8.625871658325195312e+00,-8.703166961669921875e+00,-8.680867195129394531e+00,-8.694020271301269531e+00,-8.517061233520507812e+00,-8.511137962341308594e+00,-8.614053726196289062e+00,-8.570198059082031250e+00,-8.488557815551757812e+00,-8.606695175170898438e+00,-8.518696784973144531e+00,-8.495903015136718750e+00,-8.483087539672851562e+00,-8.558647155761718750e+00,-8.312521934509277344e+00,-8.459683418273925781e+00,-8.492095947265625000e+00,-8.430157661437988281e+00,-8.355171203613281250e+00,-8.279432296752929688e+00,-8.316802024841308594e+00,-8.221901893615722656e+00,-8.196807861328125000e+00,-8.197909355163574219e+00,-8.131521224975585938e+00,-8.228607177734375000e+00,-8.158947944641113281e+00,-8.156782150268554688e+00,nan,-8.122776985168457031e+00,-8.021975517272949219e+00,-7.997009277343750000e+00,-8.067812919616699219e+00,nan,-7.978861808776855469e+00,-7.978134155273437500e+00,-7.941901683807373047e+00,-7.899495601654052734e+00,-7.905890464782714844e+00,-7.946585178375244141e+00,-7.958141803741455078e+00,-7.982797145843505859e+00,-7.936264038085937500e+00,-7.243209838867187500e+00,-8.023139953613281250e+00,-7.970163345336914062e+00,-7.975089073181152344e+00,nan,-7.964379787445068359e+00,nan,-7.370349884033203125e+00,nan,nan,nan,nan,nan,nan,nan,nan,nan,nan,nan,nan,nan,nan,nan
-3.139458656311035156e+00,-3.059220314025878906e+00,-3.047669887542724609e+00,-2.694689273834228516e+00,-2.639804363250732422e+00,-7.507903099060058594e+00,-8.404146194458007812e+00,-8.451546669006347656e+00,-8.490157127380371094e+00,-9.403994560241699219e+00,-8.743262290954589844e+00,-8.747246742248535156e+00,-8.348767280578613281e+00,-8.595219612121582031e+00,-8.777886390686035156e+00,-8.648922920227050781e+00,-8.667367935180664062e+00,-8.618385314941406250e+00,-8.633457183837890625e+00,-8.605929374694824219e+00,-8.588204383850097656e+00,-9.231512069702148438e+00,-9.654855728149414062e+00,-9.318443298339843750e+00,-8.867401123046875000e+00,-8.838652610778808594e+00,-8.470824241638183594e+00,-8.487236022949218750e+00,-8.529317855834960938e+00,-8.990115165710449219e+00,-9.001107215881347656e+00,-7.840080738067626953e+00,-7.647014141082763672e+00,-7.919520378112792969e+00,-8.172618865966796875e+00,-7.166532516479492188e+00,-7.690683841705322266e+00,-5.405671596527099609e+00,-5.480086326599121094e+00,-5.174562454223632812e+00,-4.988217353820800781e+00,-5.557766914367675781e+00,nan,-8.548990249633789062e+00,-9.510925292968750000e+00,-9.696682929992675781e+00,-9.607355117797851562e+00,-9.364201545715332031e+00,-9.458858489990234375e+00,-9.607856750488281250e+00,-9.476417541503906250e+00,-9.569295883178710938e+00,-9.623124122619628906e+00,-9.575226783752441406e+00,-8.613448143005371094e+00,-8.234980583190917969e+00,-8.467889785766601562e+00,-8.684637069702148438e+00,-8.565553665161132812e+00,-8.881381988525390625e+00,-8.790952682495117188e+00,-8.806065559387207031e+00,-8.864423751831054688e+00,-8.607314109802246094e+00,-9.097300529479980469e+00,-8.646663665771484375e+00,-9.127870559692382812e+00,-8.989250183105468750e+00,-9.068662643432617188e+00,-9.124897956848144531e+00,-8.452608108520507812e+00,-9.293376922607421875e+00,nan,-9.325218200683593750e+00,nan,-9.211380004882812500e+00,-8.968735694885253906e+00,-8.965870857238769531e+00,-8.290151596069335938e+00,-8.413499832153320312e+00,-8.440156936645507812e+00,-8.556468963623046875e+00,-8.295338630676269531e+00,-8.764090538024902344e+00,-8.524390220642089844e+00,-8.665571212768554688e+00,-8.705281257629394531e+00,-9.115809440612792969e+00,-8.996631622314453125e+00,-8.817229270935058594e+00,-8.621651649475097656e+00,-8.639118194580078125e+00,-8.604014396667480469e+00,-8.623988151550292969e+00,-8.596826553344726562e+00,-8.609808921813964844e+00,-8.630810737609863281e+00,-8.606269836425781250e+00,-8.615652084350585938e+00,-8.580540657043457031e+00,-8.628516197204589844e+00,-8.587471961975097656e+00,-8.536072731018066406e+00,-8.664363861083984375e+00,-8.839865684509277344e+00,-8.640605926513671875e+00,-8.446907997131347656e+00,-8.446334838867187500e+00,-8.406914710998535156e+00,-8.533025741577148438e+00,-8.466604232788085938e+00,-8.364164352416992188e+00,-8.396144866943359375e+00,-8.417388916015625000e+00,-8.429157257080078125e+00,-8.264656066894531250e+00,-8.270462036132812500e+00,-8.302227020263671875e+00,-8.328014373779296875e+00,-8.199192047119140625e+00,-8.235737800598144531e+00,-8.170306205749511719e+00,-8.190876960754394531e+00,-8.133457183837890625e+00,-8.191395759582519531e+00,-8.100669860839843750e+00,-7.982944965362548828e+00,-8.113685607910156250e+00,-8.097283363342285156e+00,-8.112462997436523438e+00,-8.055903434753417969e+00,-8.068838119506835938e+00,-7.990094661712646484e+00,-7.977598667144775391e+00,-7.964302062988281250e+00,-7.904037475585937500e+00,-7.853958129882812500e+00,-7.449919700622558594e+00,-7.851980209350585938e+00,-7.911375045776367188e+00,nan,-7.170846939086914062e+00,-7.908979892730712891e+00,-7.200284957885742188e+00,-7.464433670043945312e+00,-7.881999015808105469e+00,-7.448291301727294922e+00,-7.478801727294921875e+00,-7.789609432220458984e+00,-7.390826702117919922e+00,nan,nan,nan,nan,nan,nan,nan,nan,nan,nan,nan,nan,nan,nan,nan
-3.063358783721923828e+00,-3.064838409423828125e+00,-1.068784523010253906e+01,nan,-8.417603492736816406e+00,-7.548130512237548828e+00,-7.524717330932617188e+00,-8.736015319824218750e+00,-7.516625881195068359e+00,-8.720756530761718750e+00,-8.778280258178710938e+00,-8.292215347290039062e+00,-7.920536518096923828e+00,-9.163232803344726562e+00,-8.972446441650390625e+00,-8.645017623901367188e+00,-8.622055053710937500e+00,-8.202931404113769531e+00,-8.165753364562988281e+00,-8.609647750854492188e+00,-8.165708541870117188e+00,-8.554677963256835938e+00,-9.465021133422851562e+00,-9.346660614013671875e+00,-9.441424369812011719e+00,-8.982295989990234375e+00,-5.288771629333496094e+00,-9.447841644287109375e+00,-8.949857711791992188e+00,-9.066934585571289062e+00,-8.814821243286132812e+00,-8.859287261962890625e+00,-7.576481819152832031e+00,-7.466727733612060547e+00,-8.058592796325683594e+00,-7.297929763793945312e+00,-7.884453296661376953e+00,-6.277412414550781250e+00,-4.980385780334472656e+00,-5.234396934509277344e+00,-8.587932586669921875e+00,-8.825962066650390625e+00,-8.396171569824218750e+00,-8.459170341491699219e+00,-9.620471954345703125e+00,-9.592417716979980469e+00,nan,nan,-9.615398406982421875e+00,nan,nan,nan,-9.537743568420410156e+00,-7.976196289062500000e+00,-8.287672996520996094e+00,-8.718735694885253906e+00,-8.113240242004394531e+00,-8.189076423645019531e+00,-8.160340309143066406e+00,-8.656307220458984375e+00,-8.564796447753906250e+00,-8.606390953063964844e+00,-8.798610687255859375e+00,-9.014028549194335938e+00,-9.233788490295410156e+00,-9.205551147460937500e+00,-8.215500831604003906e+00,-7.710814476013183594e+00,-9.023663520812988281e+00,-9.098692893981933594e+00,-8.412176132202148438e+00,-9.280025482177734375e+00,-9.270308494567871094e+00,-8.950428962707519531e+00,-8.958248138427734375e+00,-8.960760116577148438e+00,-8.987121582031250000e+00,-8.778896331787109375e+00,-8.876954078674316406e+00,-8.461363792419433594e+00,-8.641839027404785156e+00,-8.914058685302734375e+00,-8.705837249755859375e+00,-8.454284667968750000e+00,-8.415814399719238281e+00,-8.614727020263671875e+00,nan,-9.012557983398437500e+00,-8.936081886291503906e+00,-8.646294593811035156e+00,-8.648646354675292969e+00,-8.639755249023437500e+00,-8.612904548645019531e+00,-8.586152076721191406e+00,-8.603302001953125000e+00,-8.612436294555664062e+00,-8.654427528381347656e+00,-8.704535484313964844e+00,-8.610201835632324219e+00,-8.569243431091308594e+00,-8.653102874755859375e+00,-8.617053031921386719e+00,-8.549738883972167969e+00,-8.600422859191894531e+00,-8.532546043395996094e+00,-8.504835128784179688e+00,-8.455732345581054688e+00,-8.403977394104003906e+00,-8.457489013671875000e+00,-8.470938682556152344e+00,-8.441987037658691406e+00,-8.462813377380371094e+00,-8.319362640380859375e+00,-8.324302673339843750e+00,-8.331833839416503906e+00,-8.377718925476074219e+00,-8.241602897644042969e+00,-8.276136398315429688e+00,-8.278563499450683594e+00,-8.225166320800781250e+00,-8.192604064941406250e+00,-8.220505714416503906e+00,-8.101922035217285156e+00,-8.058379173278808594e+00,-8.008318901062011719e+00,-8.037069320678710938e+00,-8.136678695678710938e+00,-8.003983497619628906e+00,-8.027680397033691406e+00,-8.116610527038574219e+00,-8.106575965881347656e+00,nan,-8.032403945922851562e+00,-8.003903388977050781e+00,-7.995846271514892578e+00,nan,nan,nan,-7.842596054077148438e+00,nan,nan,-7.164371490478515625e+00,-7.409729957580566406e+00,-7.731272220611572266e+00,-7.719072341918945312e+00,-7.572143077850341797e+00,-7.386520385742187500e+00,-7.424206256866455078e+00,-7.696311473846435547e+00,nan,nan,nan,nan,nan,nan,nan,nan,nan,nan,nan,nan,nan,nan,nan,nan
nan,-3.204736709594726562e+00,nan,-7.534725666046142578e+00,-7.645498752593994141e+00,-7.565890789031982422e+00,-7.545740127563476562e+00,-7.753978252410888672e+00,-7.520854949951171875e+00,-8.119050025939941406e+00,-8.260584831237792969e+00,-8.711053848266601562e+00,-8.692974090576171875e+00,-8.963171958923339844e+00,-8.194385528564453125e+00,-8.574977874755859375e+00,-8.193213462829589844e+00,-8.174612045288085938e+00,-8.232244491577148438e+00,-8.599014282226562500e+00,-8.560499191284179688e+00,-8.520200729370117188e+00,-9.343631744384765625e+00,-9.188514709472656250e+00,-9.378299713134765625e+00,-9.521750450134277344e+00,-9.655788421630859375e+00,-7.717355251312255859e+00,-8.944278717041015625e+00,-8.788736343383789062e+00,-8.969120025634765625e+00,-6.254495143890380859e+00,-7.423046112060546875e+00,-7.494743824005126953e+00,-6.142084121704101562e+00,-7.190357208251953125e+00,-5.168699264526367188e+00,-8.293807983398437500e+00,-8.369877815246582031e+00,-8.201510429382324219e+00,-8.506166458129882812e+00,-8.491586685180664062e+00,-8.473670005798339844e+00,-8.406560897827148438e+00,-9.514966011047363281e+00,nan,nan,nan,nan,nan,nan,-8.226861000061035156e+00,-8.149197578430175781e+00,-8.662879943847656250e+00,-8.649131774902343750e+00,-8.122357368469238281e+00,-8.157177925109863281e+00,-8.619746208190917969e+00,-8.460036277770996094e+00,-8.564020156860351562e+00,-8.399040222167968750e+00,-8.811152458190917969e+00,-8.666213035583496094e+00,-9.166255950927734375e+00,-8.654746055603027344e+00,-8.640392303466796875e+00,-8.821458816528320312e+00,-8.749975204467773438e+00,-9.043718338012695312e+00,-8.994287490844726562e+00,-9.007180213928222656e+00,-9.240036964416503906e+00,-9.042564392089843750e+00,-9.187702178955078125e+00,nan,-8.422164916992187500e+00,-8.736688613891601562e+00,-8.743686676025390625e+00,-8.798772811889648438e+00,-8.400774955749511719e+00,-8.686870574951171875e+00,-8.138269424438476562e+00,-8.603487014770507812e+00,-8.654281616210937500e+00,-8.872558593750000000e+00,-8.896382331848144531e+00,-8.716249465942382812e+00,-8.830773353576660156e+00,-8.839709281921386719e+00,-8.653203010559082031e+00,-8.609458923339843750e+00,-8.611248016357421875e+00,-8.588224411010742188e+00,-8.594182968139648438e+00,-8.552238464355468750e+00,-8.608772277832031250e+00,-8.722252845764160156e+00,-8.554642677307128906e+00,-8.609459877014160156e+00,nan,-8.584712028503417969e+00,-8.541162490844726562e+00,-8.567771911621093750e+00,-8.555382728576660156e+00,-8.448871612548828125e+00,-8.399031639099121094e+00,-8.490194320678710938e+00,-8.387022972106933594e+00,-8.364351272583007812e+00,-8.370518684387207031e+00,-8.427709579467773438e+00,-8.331208229064941406e+00,-8.305570602416992188e+00,-8.382225036621093750e+00,-8.389284133911132812e+00,-8.317674636840820312e+00,-8.340383529663085938e+00,-8.263641357421875000e+00,-8.274681091308593750e+00,-8.170604705810546875e+00,-8.229053497314453125e+00,-8.169447898864746094e+00,-8.172853469848632812e+00,-8.164350509643554688e+00,-8.020105361938476562e+00,-8.010850906372070312e+00,-8.060631752014160156e+00,-7.942935466766357422e+00,-8.046664237976074219e+00,-8.046794891357421875e+00,-8.111814498901367188e+00,-7.922845840454101562e+00,-8.048903465270996094e+00,-7.974535942077636719e+00,-8.042687416076660156e+00,-8.012598037719726562e+00,nan,-7.809780120849609375e+00,-7.835074424743652344e+00,-7.895658493041992188e+00,-7.917473793029785156e+00,-7.449193954467773438e+00,-7.421911716461181641e+00,-7.612640380859375000e+00,-7.503373622894287109e+00,-7.917423248291015625e+00,-7.846261024475097656e+00,-7.386182308197021484e+00,-7.835011005401611328e+00,nan,nan,nan,nan,nan,nan,nan,nan,nan,nan,nan,nan,nan,nan,nan,nan
nan,nan,-1.047666168212890625e+01,-7.508928298950195312e+00,-7.622464179992675781e+00,-1.031794071197509766e+01,-7.744603157043457031e+00,-7.896753311157226562e+00,-7.755562782287597656e+00,-8.288029670715332031e+00,-8.980886459350585938e+00,-8.333522796630859375e+00,-8.005183219909667969e+00,-8.703999519348144531e+00,-8.847339630126953125e+00,-8.629302024841308594e+00,-8.199494361877441406e+00,-8.205643653869628906e+00,-9.244671821594238281e+00,-8.545129776000976562e+00,-8.507178306579589844e+00,-8.481075286865234375e+00,-8.908482551574707031e+00,-6.118701457977294922e+00,-9.446424484252929688e+00,-9.227379798889160156e+00,-9.714123725891113281e+00,-9.604948043823242188e+00,-9.678886413574218750e+00,-5.781767368316650391e+00,-7.481859207153320312e+00,-6.593329429626464844e+00,-7.096821308135986328e+00,-7.597678661346435547e+00,-5.425763607025146484e+00,-8.468507766723632812e+00,-8.370578765869140625e+00,-8.499238967895507812e+00,-8.511444091796875000e+00,-8.281752586364746094e+00,-8.407962799072265625e+00,-8.387705802917480469e+00,-8.322694778442382812e+00,-8.342695236206054688e+00,-8.411432266235351562e+00,nan,nan,nan,nan,nan,-8.456398963928222656e+00,-8.735952377319335938e+00,-8.233574867248535156e+00,-8.160183906555175781e+00,-8.108479499816894531e+00,-8.091625213623046875e+00,-8.148805618286132812e+00,-8.172494888305664062e+00,-8.487328529357910156e+00,-8.259596824645996094e+00,-8.412509918212890625e+00,-8.348330497741699219e+00,-8.838389396667480469e+00,-9.435656547546386719e+00,-9.056001663208007812e+00,-8.725210189819335938e+00,-9.001679420471191406e+00,-8.378829956054687500e+00,-9.070066452026367188e+00,-9.059593200683593750e+00,-8.986256599426269531e+00,-9.133613586425781250e+00,-9.167360305786132812e+00,-8.980829238891601562e+00,-8.893346786499023438e+00,-9.131119728088378906e+00,-9.028221130371093750e+00,-8.688518524169921875e+00,-8.583224296569824219e+00,-8.463384628295898438e+00,-8.271999359130859375e+00,-8.979501724243164062e+00,-8.889738082885742188e+00,-8.880342483520507812e+00,-8.736637115478515625e+00,-8.753117561340332031e+00,-8.729388236999511719e+00,-9.097352981567382812e+00,-8.596466064453125000e+00,-8.608157157897949219e+00,-8.594378471374511719e+00,-8.664400100708007812e+00,-8.562666893005371094e+00,-8.583936691284179688e+00,-8.552238464355468750e+00,-8.577406883239746094e+00,-8.603198051452636719e+00,-8.583371162414550781e+00,-8.522297859191894531e+00,-8.532289505004882812e+00,-8.634318351745605469e+00,-8.499567031860351562e+00,-8.528116226196289062e+00,-8.492769241333007812e+00,-8.522251129150390625e+00,-8.422140121459960938e+00,-8.441595077514648438e+00,-8.383214950561523438e+00,-8.463163375854492188e+00,-8.393929481506347656e+00,-8.405763626098632812e+00,-8.398118972778320312e+00,-8.381576538085937500e+00,-8.420825958251953125e+00,-8.349176406860351562e+00,-8.275423049926757812e+00,-8.300868988037109375e+00,-8.119724273681640625e+00,-8.326202392578125000e+00,-8.277931213378906250e+00,-8.081387519836425781e+00,-8.200829505920410156e+00,-8.236442565917968750e+00,-8.213100433349609375e+00,-8.005455017089843750e+00,-7.970385074615478516e+00,-7.988660335540771484e+00,-7.972445011138916016e+00,-8.142963409423828125e+00,-7.977876663208007812e+00,-7.960914611816406250e+00,-7.934427261352539062e+00,-8.028263092041015625e+00,-8.062731742858886719e+00,-7.903576850891113281e+00,-7.865791320800781250e+00,-7.859655380249023438e+00,-7.849580287933349609e+00,-7.604945182800292969e+00,-7.304717540740966797e+00,-7.653090953826904297e+00,-7.383341312408447266e+00,-7.609613895416259766e+00,nan,-7.389751911163330078e+00,-7.739968776702880859e+00,-7.697052001953125000e+00,nan,-7.706320762634277344e+00,nan,nan,nan,nan,nan,nan,nan,nan,nan,nan,nan,nan,nan,nan,nan,nan
nan,nan,-1.045629024505615234e+01,-8.449506759643554688e+00,-1.047325038909912109e+01,-7.763915538787841797e+00,-7.810068607330322266e+00,-8.879668235778808594e+00,-8.769160270690917969e+00,-8.701763153076171875e+00,-8.665806770324707031e+00,-8.282858848571777344e+00,-8.672206878662109375e+00,-8.656841278076171875e+00,-8.758460044860839844e+00,-8.619697570800781250e+00,-8.194766998291015625e+00,-9.098529815673828125e+00,-9.095686912536621094e+00,-8.556953430175781250e+00,-8.522688865661621094e+00,-8.512141227722167969e+00,-1.012106418609619141e+01,-9.153312683105468750e+00,-9.706222534179687500e+00,-9.434066772460937500e+00,-9.330259323120117188e+00,-9.319749832153320312e+00,-6.361018657684326172e+00,-7.255492210388183594e+00,-5.673187732696533203e+00,-5.604506969451904297e+00,-5.522300243377685547e+00,-8.379777908325195312e+00,-8.423030853271484375e+00,-8.375212669372558594e+00,-8.374151229858398438e+00,-8.369570732116699219e+00,-8.316474914550781250e+00,-9.891042709350585938e+00,-8.442583084106445312e+00,-8.627061843872070312e+00,-8.440482139587402344e+00,-8.330540657043457031e+00,-8.209902763366699219e+00,nan,nan,-8.152082443237304688e+00,-8.903431892395019531e+00,-8.373768806457519531e+00,-8.461276054382324219e+00,-8.279861450195312500e+00,-8.140135765075683594e+00,-8.531724929809570312e+00,-8.112854003906250000e+00,-8.256986618041992188e+00,-8.146801948547363281e+00,-8.266316413879394531e+00,-8.430263519287109375e+00,-8.491347312927246094e+00,-8.621508598327636719e+00,-8.112052917480468750e+00,-9.028850555419921875e+00,-8.957065582275390625e+00,-9.023778915405273438e+00,-8.704957008361816406e+00,-8.465942382812500000e+00,-8.708322525024414062e+00,-8.043271064758300781e+00,-8.633217811584472656e+00,-9.200116157531738281e+00,-8.476457595825195312e+00,nan,-9.147000312805175781e+00,-9.042583465576171875e+00,-9.117629051208496094e+00,-8.751653671264648438e+00,-8.980898857116699219e+00,-8.369370460510253906e+00,-8.441718101501464844e+00,-8.996181488037109375e+00,nan,-8.731614112854003906e+00,-8.780557632446289062e+00,nan,-8.842559814453125000e+00,-8.697556495666503906e+00,-8.781586647033691406e+00,-8.808819770812988281e+00,-8.587585449218750000e+00,-8.577508926391601562e+00,-8.558597564697265625e+00,-8.624157905578613281e+00,-8.595248222351074219e+00,-8.718821525573730469e+00,-8.603956222534179688e+00,-8.552535057067871094e+00,-8.545795440673828125e+00,-8.585906982421875000e+00,-8.530199050903320312e+00,-8.539560317993164062e+00,-8.575158119201660156e+00,-8.494483947753906250e+00,-8.493772506713867188e+00,-8.485217094421386719e+00,-8.527895927429199219e+00,-8.472282409667968750e+00,-8.363945007324218750e+00,-8.380897521972656250e+00,-8.398675918579101562e+00,-8.434018135070800781e+00,-8.294226646423339844e+00,-8.378829956054687500e+00,-8.387331008911132812e+00,-8.353967666625976562e+00,-8.339044570922851562e+00,-8.249310493469238281e+00,-8.331614494323730469e+00,-8.240794181823730469e+00,-8.309362411499023438e+00,-8.171424865722656250e+00,-8.058881759643554688e+00,-7.992153167724609375e+00,-8.022365570068359375e+00,-8.064543724060058594e+00,-8.069875717163085938e+00,-7.901404857635498047e+00,-7.901317596435546875e+00,-8.043184280395507812e+00,-8.035934448242187500e+00,-7.930603504180908203e+00,-7.959405899047851562e+00,-7.873606681823730469e+00,-7.924796104431152344e+00,-7.896639347076416016e+00,-7.861443519592285156e+00,-7.847230434417724609e+00,-7.852126598358154297e+00,-7.850510120391845703e+00,-7.725409030914306641e+00,-7.696494579315185547e+00,-7.643612861633300781e+00,-7.605526447296142578e+00,-7.825636863708496094e+00,-7.712988853454589844e+00,-7.797778606414794922e+00,-7.786837577819824219e+00,-7.757782459259033203e+00,-7.819581031799316406e+00,nan,nan,-7.487904548645019531e+00,nan,nan,nan,nan,nan,nan,nan,nan,nan,nan,nan,nan,nan
-8.609483718872070312e+00,-8.571937561035156250e+00,-8.465148925781250000e+00,-8.448162078857421875e+00,-8.572831153869628906e+00,-9.170678138732910156e+00,-9.146937370300292969e+00,-9.679906845092773438e+00,-8.232453346252441406e+00,-8.400868415832519531e+00,-8.268954277038574219e+00,-7.809272766113281250e+00,-7.866668701171875000e+00,-7.853233337402343750e+00,-8.645214080810546875e+00,-8.634299278259277344e+00,-7.525558471679687500e+00,-9.024803161621093750e+00,-9.139611244201660156e+00,-9.255143165588378906e+00,-8.734463691711425781e+00,-8.464382171630859375e+00,-9.441495895385742188e+00,-9.189076423645019531e+00,-9.737418174743652344e+00,-9.550379753112792969e+00,-9.409068107604980469e+00,-5.780680656433105469e+00,-6.092151641845703125e+00,-7.690781116485595703e+00,-6.617068767547607422e+00,-5.013889789581298828e+00,-8.380275726318359375e+00,-8.457948684692382812e+00,-8.378811836242675781e+00,-8.325733184814453125e+00,-8.323906898498535156e+00,-8.377064704895019531e+00,-8.362398147583007812e+00,-8.462754249572753906e+00,-8.544601440429687500e+00,-8.546436309814453125e+00,-8.616788864135742188e+00,-8.389682769775390625e+00,-8.282999038696289062e+00,-7.954900264739990234e+00,nan,-8.202182769775390625e+00,-8.435934066772460938e+00,-8.427509307861328125e+00,-8.066415786743164062e+00,-8.218726158142089844e+00,-8.068822860717773438e+00,-8.097998619079589844e+00,-8.078958511352539062e+00,-8.935253143310546875e+00,-8.103569030761718750e+00,-8.286229133605957031e+00,-8.558699607849121094e+00,-8.407192230224609375e+00,-8.742256164550781250e+00,-7.970005035400390625e+00,-8.867075920104980469e+00,-8.984540939331054688e+00,-9.065310478210449219e+00,-9.013984680175781250e+00,-9.109266281127929688e+00,-8.661934852600097656e+00,-9.093822479248046875e+00,-8.804141044616699219e+00,-9.101725578308105469e+00,-9.067045211791992188e+00,-9.162858009338378906e+00,-9.034294128417968750e+00,-8.886505126953125000e+00,-8.983436584472656250e+00,-8.989314079284667969e+00,-8.340617179870605469e+00,-8.594111442565917969e+00,-8.957954406738281250e+00,-8.913084030151367188e+00,-8.631451606750488281e+00,-8.685767173767089844e+00,-8.908394813537597656e+00,nan,-8.725547790527343750e+00,-8.625737190246582031e+00,-8.631675720214843750e+00,-8.617651939392089844e+00,-8.628725051879882812e+00,-8.604669570922851562e+00,-8.612836837768554688e+00,-8.531238555908203125e+00,-8.620250701904296875e+00,-8.625567436218261719e+00,-8.583745956420898438e+00,-8.640233039855957031e+00,-8.555602073669433594e+00,-8.555418968200683594e+00,-8.513265609741210938e+00,-8.553012847900390625e+00,-8.568114280700683594e+00,-8.578754425048828125e+00,-8.440041542053222656e+00,-8.464740753173828125e+00,-8.488895416259765625e+00,-8.489480972290039062e+00,-8.408394813537597656e+00,-8.449548721313476562e+00,-8.270036697387695312e+00,-8.414301872253417969e+00,-8.252889633178710938e+00,-8.400922775268554688e+00,-8.451045036315917969e+00,-8.325385093688964844e+00,-8.207222938537597656e+00,-8.093842506408691406e+00,-8.180977821350097656e+00,-8.116817474365234375e+00,-8.099375724792480469e+00,-8.097887039184570312e+00,-8.074320793151855469e+00,-8.106130599975585938e+00,-8.029141426086425781e+00,-8.094512939453125000e+00,-7.927538871765136719e+00,-8.055714607238769531e+00,-8.045451164245605469e+00,-8.009157180786132812e+00,-7.971259117126464844e+00,-7.954159736633300781e+00,-7.990855216979980469e+00,-7.935590267181396484e+00,-7.868620872497558594e+00,-7.898544311523437500e+00,-7.866967201232910156e+00,-7.897663116455078125e+00,-7.687227249145507812e+00,-7.719962120056152344e+00,-7.466479778289794922e+00,-7.444947719573974609e+00,-7.691897869110107422e+00,-7.718014240264892578e+00,nan,-7.790218353271484375e+00,nan,-7.726382255554199219e+00,-7.679851055145263672e+00,-7.645637035369873047e+00,nan,nan,-7.491394042968750000e+00,nan,-7.507855415344238281e+00,nan,nan,nan,nan,nan,nan,nan,nan,nan,nan,nan
-8.769719123840332031e+00,-8.477153778076171875e+00,-8.461627006530761719e+00,-8.773333549499511719e+00,-8.798532485961914062e+00,-9.068436622619628906e+00,-9.448624610900878906e+00,-9.232875823974609375e+00,-7.995297908782958984e+00,-9.412626266479492188e+00,-9.976432800292968750e+00,-8.292142868041992188e+00,-8.156933784484863281e+00,-8.253535270690917969e+00,-7.514996051788330078e+00,-8.187844276428222656e+00,-7.705608844757080078e+00,-8.944306373596191406e+00,-9.066327095031738281e+00,-7.693634510040283203e+00,-8.469517707824707031e+00,-9.155407905578613281e+00,-9.474709510803222656e+00,-5.274034023284912109e+00,-9.474742889404296875e+00,-9.685745239257812500e+00,-9.201348304748535156e+00,-5.857781410217285156e+00,-7.213089466094970703e+00,-4.737635612487792969e+00,-1.002548694610595703e+01,-8.428458213806152344e+00,-8.626699447631835938e+00,-9.935424804687500000e+00,-9.931692123413085938e+00,-8.388021469116210938e+00,-8.356672286987304688e+00,-8.368239402770996094e+00,-8.395442962646484375e+00,-8.603625297546386719e+00,-8.551779747009277344e+00,-8.602862358093261719e+00,-8.667679786682128906e+00,-8.493044853210449219e+00,-8.128669738769531250e+00,-8.213962554931640625e+00,-8.316804885864257812e+00,-8.332873344421386719e+00,-8.461173057556152344e+00,-8.340636253356933594e+00,-8.306632041931152344e+00,-8.371379852294921875e+00,-8.071413040161132812e+00,-8.025411605834960938e+00,-8.067594528198242188e+00,-8.076048851013183594e+00,-8.176736831665039062e+00,-8.355396270751953125e+00,-8.447617530822753906e+00,-8.403234481811523438e+00,-9.413124084472656250e+00,-8.216079711914062500e+00,-8.180284500122070312e+00,-9.169563293457031250e+00,-8.030794143676757812e+00,-9.089048385620117188e+00,-9.099880218505859375e+00,-9.081624031066894531e+00,-8.843072891235351562e+00,-9.064524650573730469e+00,-8.487718582153320312e+00,-8.959641456604003906e+00,nan,-9.074703216552734375e+00,-8.395576477050781250e+00,-8.577065467834472656e+00,-8.824507713317871094e+00,-8.375555038452148438e+00,-8.723580360412597656e+00,-8.832241058349609375e+00,-8.862167358398437500e+00,-8.673186302185058594e+00,-8.742323875427246094e+00,-8.363781929016113281e+00,nan,-8.767326354980468750e+00,-8.668354988098144531e+00,-8.686936378479003906e+00,-8.796374320983886719e+00,-8.636818885803222656e+00,-8.596558570861816406e+00,-8.507032394409179688e+00,nan,-8.973377227783203125e+00,-8.564907073974609375e+00,-8.565254211425781250e+00,-8.638114929199218750e+00,-8.535558700561523438e+00,-8.570534706115722656e+00,-8.521731376647949219e+00,-8.470151901245117188e+00,-8.537244796752929688e+00,-8.418478012084960938e+00,-8.611413002014160156e+00,-8.432315826416015625e+00,-8.361657142639160156e+00,-8.378612518310546875e+00,-8.309782028198242188e+00,-8.449342727661132812e+00,-8.432211875915527344e+00,-8.453204154968261719e+00,-8.311460494995117188e+00,-8.216867446899414062e+00,-8.204364776611328125e+00,-8.306867599487304688e+00,-8.193834304809570312e+00,-8.112548828125000000e+00,-8.052569389343261719e+00,-8.083358764648437500e+00,-8.087038993835449219e+00,-8.109416007995605469e+00,-8.097507476806640625e+00,-7.964032649993896484e+00,-8.026877403259277344e+00,-8.022994995117187500e+00,-8.041068077087402344e+00,-7.989318847656250000e+00,-7.982692718505859375e+00,-7.971440315246582031e+00,-7.979408264160156250e+00,-7.977761268615722656e+00,-7.967197895050048828e+00,-7.907214164733886719e+00,-7.969864845275878906e+00,-7.820505142211914062e+00,-7.759499073028564453e+00,-7.845136165618896484e+00,-7.747246742248535156e+00,-7.659847259521484375e+00,-7.408511161804199219e+00,-7.384583950042724609e+00,-7.666326999664306641e+00,-7.662836551666259766e+00,-7.733579158782958984e+00,nan,-7.584222793579101562e+00,-7.485763549804687500e+00,-7.684597015380859375e+00,-7.625420093536376953e+00,nan,nan,nan,nan,nan,nan,nan,nan,nan,nan,nan,nan,nan,nan,nan,nan
-9.213953018188476562e+00,nan,-8.832354545593261719e+00,-8.836614608764648438e+00,-8.694868087768554688e+00,-8.459328651428222656e+00,-8.616374015808105469e+00,-9.008951187133789062e+00,-7.928692817687988281e+00,-7.843778610229492188e+00,-7.518383979797363281e+00,-8.784234046936035156e+00,-8.737176895141601562e+00,-8.200881004333496094e+00,-7.442323207855224609e+00,-7.832448959350585938e+00,-8.175930023193359375e+00,-9.311344146728515625e+00,-9.112195968627929688e+00,-9.354916572570800781e+00,-7.735919952392578125e+00,-9.385960578918457031e+00,-9.447725296020507812e+00,-9.615244865417480469e+00,-9.270598411560058594e+00,-7.133840084075927734e+00,-6.130838394165039062e+00,-5.315421104431152344e+00,-8.527385711669921875e+00,-8.379654884338378906e+00,-8.477103233337402344e+00,-8.456796646118164062e+00,-8.490898132324218750e+00,-8.469229698181152344e+00,-8.410986900329589844e+00,-8.424008369445800781e+00,-8.712037086486816406e+00,-8.387688636779785156e+00,-8.466048240661621094e+00,-8.406759262084960938e+00,-8.533172607421875000e+00,-8.620532989501953125e+00,-8.515925407409667969e+00,-8.732202529907226562e+00,-8.315157890319824219e+00,-8.130809783935546875e+00,-8.124044418334960938e+00,-8.401565551757812500e+00,-8.349553108215332031e+00,-8.283072471618652344e+00,-8.291334152221679688e+00,-8.426847457885742188e+00,-8.517883300781250000e+00,-8.141847610473632812e+00,-8.109044075012207031e+00,-8.103628158569335938e+00,-8.258082389831542969e+00,-8.382634162902832031e+00,-8.182753562927246094e+00,-8.162433624267578125e+00,-8.276754379272460938e+00,-8.368951797485351562e+00,-8.141019821166992188e+00,-8.747631072998046875e+00,-8.921367645263671875e+00,-7.838304519653320312e+00,-8.915469169616699219e+00,-8.900487899780273438e+00,-8.679152488708496094e+00,-9.044442176818847656e+00,-9.005346298217773438e+00,-8.857543945312500000e+00,-8.889649391174316406e+00,-8.449798583984375000e+00,-8.469753265380859375e+00,-9.072755813598632812e+00,-9.103719711303710938e+00,-8.817927360534667969e+00,-8.792894363403320312e+00,-8.853630065917968750e+00,-8.927488327026367188e+00,-8.882069587707519531e+00,-8.711694717407226562e+00,-8.720168113708496094e+00,nan,-8.689888000488281250e+00,-8.655524253845214844e+00,-8.604518890380859375e+00,-8.580946922302246094e+00,-8.528797149658203125e+00,nan,-8.547110557556152344e+00,-8.572291374206542969e+00,nan,-8.524694442749023438e+00,-8.541613578796386719e+00,-8.535612106323242188e+00,-8.518115997314453125e+00,-8.561327934265136719e+00,nan,-8.456774711608886719e+00,-8.486987113952636719e+00,nan,nan,-8.404376983642578125e+00,-8.359125137329101562e+00,-8.287366867065429688e+00,-8.226702690124511719e+00,-8.418634414672851562e+00,-8.322959899902343750e+00,-8.243415832519531250e+00,-8.220564842224121094e+00,-8.265977859497070312e+00,-8.217376708984375000e+00,-8.137253761291503906e+00,-8.139986038208007812e+00,-8.238520622253417969e+00,-8.110658645629882812e+00,-8.097661018371582031e+00,-7.971393108367919922e+00,-7.975697517395019531e+00,-8.065645217895507812e+00,-8.039689064025878906e+00,-8.035566329956054688e+00,-7.961192131042480469e+00,-7.997961521148681641e+00,-7.896373271942138672e+00,-7.964836597442626953e+00,-7.912731647491455078e+00,-7.904072284698486328e+00,-7.859082698822021484e+00,-7.890280246734619141e+00,-7.901204109191894531e+00,-7.849460124969482422e+00,-7.829632282257080078e+00,-7.652934074401855469e+00,-7.820515632629394531e+00,-7.652541160583496094e+00,-7.718871116638183594e+00,-7.384618282318115234e+00,-7.773188591003417969e+00,-7.726150989532470703e+00,-7.705166816711425781e+00,-7.726933956146240234e+00,-7.572425842285156250e+00,-7.498011112213134766e+00,-7.590242385864257812e+00,-7.676270008087158203e+00,-7.595060825347900391e+00,nan,nan,nan,-7.384257316589355469e+00,nan,nan,nan,nan,nan,nan,nan,nan,nan,nan,nan,nan
-9.234592437744140625e+00,-9.237996101379394531e+00,-9.041817665100097656e+00,nan,-9.073534965515136719e+00,-8.532340049743652344e+00,-8.369210243225097656e+00,-8.349380493164062500e+00,-7.998459815979003906e+00,-7.837522506713867188e+00,-7.732279300689697266e+00,-7.874796867370605469e+00,-7.863660812377929688e+00,-8.609443664550781250e+00,-8.275780677795410156e+00,-8.555349349975585938e+00,-8.173554420471191406e+00,-8.258299827575683594e+00,-9.034379959106445312e+00,-7.753468990325927734e+00,-9.587151527404785156e+00,-9.443702697753906250e+00,-9.472352027893066406e+00,-4.979735851287841797e+00,-9.270647048950195312e+00,-7.331377983093261719e+00,-4.707265853881835938e+00,nan,-8.634743690490722656e+00,-8.496808052062988281e+00,-8.419967651367187500e+00,-8.478176116943359375e+00,-8.428937911987304688e+00,-8.439638137817382812e+00,-8.531268119812011719e+00,-8.527145385742187500e+00,-8.477416992187500000e+00,-8.539045333862304688e+00,-8.502278327941894531e+00,-8.630862236022949219e+00,-8.628740310668945312e+00,-8.620131492614746094e+00,-8.792452812194824219e+00,-8.800385475158691406e+00,-8.566467285156250000e+00,-8.163304328918457031e+00,-8.204094886779785156e+00,-8.419612884521484375e+00,-8.381708145141601562e+00,-8.342138290405273438e+00,-8.302707672119140625e+00,-8.107055664062500000e+00,-8.112621307373046875e+00,-8.372994422912597656e+00,-8.462291717529296875e+00,-8.160438537597656250e+00,-8.275807380676269531e+00,-8.382360458374023438e+00,-8.165673255920410156e+00,-8.186679840087890625e+00,-8.081963539123535156e+00,-8.120253562927246094e+00,-8.094635009765625000e+00,-9.068434715270996094e+00,-8.104913711547851562e+00,-7.898314952850341797e+00,-9.014311790466308594e+00,-7.761140823364257812e+00,-9.156069755554199219e+00,-9.212857246398925781e+00,-9.045441627502441406e+00,-7.893918514251708984e+00,-8.772090911865234375e+00,-8.477104187011718750e+00,-8.372723579406738281e+00,-8.790450096130371094e+00,-8.836396217346191406e+00,-8.930904388427734375e+00,-8.929460525512695312e+00,-8.763175964355468750e+00,-8.638560295104980469e+00,-8.825804710388183594e+00,-8.820240020751953125e+00,nan,-8.677517890930175781e+00,-8.647026062011718750e+00,-8.765255928039550781e+00,-8.632461547851562500e+00,-8.568979263305664062e+00,-8.628269195556640625e+00,-8.643806457519531250e+00,-8.536436080932617188e+00,-8.521021842956542969e+00,-8.462452888488769531e+00,-8.566539764404296875e+00,-8.494617462158203125e+00,-8.580890655517578125e+00,-8.506609916687011719e+00,-8.521420478820800781e+00,-8.489433288574218750e+00,-8.443390846252441406e+00,-8.460903167724609375e+00,-8.467518806457519531e+00,-8.375925064086914062e+00,-8.393610954284667969e+00,-8.358535766601562500e+00,-8.400540351867675781e+00,-8.271570205688476562e+00,-8.336919784545898438e+00,-8.314102172851562500e+00,-8.311697959899902344e+00,-8.330150604248046875e+00,-8.318748474121093750e+00,-8.282043457031250000e+00,-8.123087882995605469e+00,-8.211666107177734375e+00,-8.046002388000488281e+00,-8.053854942321777344e+00,-8.071056365966796875e+00,-8.016218185424804688e+00,-7.935972690582275391e+00,-7.975027084350585938e+00,-8.038974761962890625e+00,-7.998107433319091797e+00,-8.007599830627441406e+00,-7.878353595733642578e+00,-7.947961330413818359e+00,-7.938270092010498047e+00,-7.925083160400390625e+00,-7.867813587188720703e+00,-7.855351448059082031e+00,-7.825871944427490234e+00,-7.645555019378662109e+00,-7.878400325775146484e+00,-7.774008750915527344e+00,-7.815434932708740234e+00,-7.765506744384765625e+00,-7.523429393768310547e+00,-7.683525085449218750e+00,-7.759913921356201172e+00,-7.680668830871582031e+00,-7.749603748321533203e+00,-7.704595088958740234e+00,-7.681654453277587891e+00,-7.665047168731689453e+00,-7.641300201416015625e+00,-7.414300441741943359e+00,-7.610822200775146484e+00,nan,nan,nan,-7.416671752929687500e+00,-7.326828479766845703e+00,nan,nan,nan,nan,nan,nan,nan,nan,nan,nan,nan,nan
-8.818629264831542969e+00,-8.481053352355957031e+00,-6.988180160522460938e+00,nan,nan,-8.476111412048339844e+00,-8.348295211791992188e+00,-8.332646369934082031e+00,-8.361135482788085938e+00,-1.001650714874267578e+01,-7.851910114288330078e+00,-7.495104312896728516e+00,-7.862695217132568359e+00,-8.600363731384277344e+00,-8.228412628173828125e+00,-8.550832748413085938e+00,-8.534214019775390625e+00,-8.515812873840332031e+00,-7.713856697082519531e+00,-7.740929126739501953e+00,-7.744862079620361328e+00,-7.736836910247802734e+00,-9.452248573303222656e+00,-4.846077919006347656e+00,-9.424958229064941406e+00,-7.351252555847167969e+00,nan,-8.436441421508789062e+00,-8.414028167724609375e+00,-8.516159057617187500e+00,-9.209001541137695312e+00,-8.456959724426269531e+00,-8.461979866027832031e+00,-8.588310241699218750e+00,-8.425500869750976562e+00,-8.417122840881347656e+00,-8.602545738220214844e+00,-8.567111968994140625e+00,-8.400831222534179688e+00,-8.445399284362792969e+00,-8.598686218261718750e+00,-8.458795547485351562e+00,-8.599042892456054688e+00,-8.706522941589355469e+00,-8.481764793395996094e+00,-8.423424720764160156e+00,-8.284775733947753906e+00,-8.423081398010253906e+00,-8.375729560852050781e+00,-8.392189025878906250e+00,-8.322917938232421875e+00,-8.044954299926757812e+00,-8.103390693664550781e+00,-8.653099060058593750e+00,-8.279669761657714844e+00,-8.331204414367675781e+00,-8.355512619018554688e+00,-8.424480438232421875e+00,-8.200071334838867188e+00,-8.080300331115722656e+00,-8.933964729309082031e+00,-8.120347023010253906e+00,-9.001960754394531250e+00,-8.944343566894531250e+00,-9.131296157836914062e+00,-9.170273780822753906e+00,-8.959497451782226562e+00,-8.102849006652832031e+00,-9.242115020751953125e+00,-8.818001747131347656e+00,-8.886229515075683594e+00,-8.968214035034179688e+00,-8.447028160095214844e+00,-8.489548683166503906e+00,-8.212327003479003906e+00,-8.634443283081054688e+00,nan,-8.798118591308593750e+00,-8.793838500976562500e+00,-8.753187179565429688e+00,-8.746461868286132812e+00,-8.761272430419921875e+00,-8.689682006835937500e+00,-8.679438591003417969e+00,-8.683120727539062500e+00,nan,-8.623205184936523438e+00,-8.635796546936035156e+00,-8.617301940917968750e+00,-8.521091461181640625e+00,-8.474206924438476562e+00,-8.552846908569335938e+00,-8.477136611938476562e+00,-8.482925415039062500e+00,-8.512496948242187500e+00,-8.494927406311035156e+00,-8.550254821777343750e+00,-8.464109420776367188e+00,-8.466599464416503906e+00,-8.433765411376953125e+00,-8.457180023193359375e+00,-8.466423988342285156e+00,-8.348144531250000000e+00,-8.366151809692382812e+00,-8.323204994201660156e+00,-8.442883491516113281e+00,-8.381409645080566406e+00,-8.277888298034667969e+00,-8.273629188537597656e+00,nan,-8.260953903198242188e+00,-8.188192367553710938e+00,-8.202817916870117188e+00,-8.271246910095214844e+00,-8.143199920654296875e+00,-8.123272895812988281e+00,-7.748207569122314453e+00,-8.046704292297363281e+00,-8.007778167724609375e+00,-7.859848976135253906e+00,-7.864297389984130859e+00,-8.028203964233398438e+00,-8.023295402526855469e+00,-7.922667026519775391e+00,-7.395109653472900391e+00,-7.882835388183593750e+00,-7.950715541839599609e+00,-7.953469753265380859e+00,-7.914417266845703125e+00,-7.471046924591064453e+00,-7.875997543334960938e+00,-7.547986030578613281e+00,-7.872756958007812500e+00,-7.614694118499755859e+00,-7.753392696380615234e+00,-7.665235519409179688e+00,-7.781485080718994141e+00,-7.654078483581542969e+00,-7.794589996337890625e+00,-7.637731552124023438e+00,-7.641010761260986328e+00,-7.692111492156982422e+00,-7.635501861572265625e+00,-7.615955352783203125e+00,-7.584908008575439453e+00,-7.628508567810058594e+00,nan,-7.581749916076660156e+00,-7.512167453765869141e+00,nan,nan,nan,nan,nan,nan,nan,nan,nan,nan,nan,nan,nan,nan,nan,nan
-8.476852416992187500e+00,-7.091495513916015625e+00,-8.707735061645507812e+00,-8.714961051940917969e+00,-8.340236663818359375e+00,-7.912093639373779297e+00,-8.171587944030761719e+00,-9.650115966796875000e+00,-7.578504085540771484e+00,-7.526021003723144531e+00,-7.515396118164062500e+00,-7.852662086486816406e+00,-8.596236228942871094e+00,-8.205943107604980469e+00,-8.193531036376953125e+00,-8.171460151672363281e+00,-8.518400192260742188e+00,-8.505282402038574219e+00,-8.123625755310058594e+00,-9.270961761474609375e+00,-8.081584930419921875e+00,-8.060246467590332031e+00,-7.696044445037841797e+00,-7.844075202941894531e+00,nan,-8.564334869384765625e+00,-8.345337867736816406e+00,-8.413885116577148438e+00,-9.694218635559082031e+00,-8.454389572143554688e+00,-8.462469100952148438e+00,-8.438895225524902344e+00,-8.555241584777832031e+00,-8.412910461425781250e+00,-8.503687858581542969e+00,-8.560013771057128906e+00,-8.650193214416503906e+00,-8.423114776611328125e+00,-8.418624877929687500e+00,-8.563291549682617188e+00,-8.483672142028808594e+00,-8.512492179870605469e+00,-8.464932441711425781e+00,nan,-8.579743385314941406e+00,nan,-8.494782447814941406e+00,-8.376220703125000000e+00,-8.322504997253417969e+00,-8.363301277160644531e+00,-8.348858833312988281e+00,nan,nan,nan,-8.450735092163085938e+00,-8.580921173095703125e+00,-8.361212730407714844e+00,nan,-8.738829612731933594e+00,nan,nan,-8.253436088562011719e+00,-9.013790130615234375e+00,-8.880682945251464844e+00,-8.385472297668457031e+00,-9.075027465820312500e+00,-8.691471099853515625e+00,-9.158209800720214844e+00,-9.018683433532714844e+00,-8.980994224548339844e+00,-9.185503005981445312e+00,-8.812047004699707031e+00,-8.819551467895507812e+00,-8.703456878662109375e+00,-8.388298034667968750e+00,-8.193308830261230469e+00,-8.809774398803710938e+00,-8.906417846679687500e+00,-8.283451080322265625e+00,-8.873703956604003906e+00,-8.708211898803710938e+00,-8.758127212524414062e+00,nan,-8.846267700195312500e+00,nan,-8.758398056030273438e+00,-8.596629142761230469e+00,-8.659775733947753906e+00,-8.534845352172851562e+00,-8.494621276855468750e+00,-8.453584671020507812e+00,-8.419190406799316406e+00,-8.461812019348144531e+00,-8.500943183898925781e+00,-8.613488197326660156e+00,-8.559780120849609375e+00,-8.451371192932128906e+00,-8.430119514465332031e+00,-8.438120841979980469e+00,-8.396465301513671875e+00,-8.419762611389160156e+00,nan,-8.315959930419921875e+00,-8.316472053527832031e+00,-8.350098609924316406e+00,-8.346808433532714844e+00,-8.343884468078613281e+00,-8.316809654235839844e+00,-8.309777259826660156e+00,-8.281125068664550781e+00,-8.266561508178710938e+00,-8.259894371032714844e+00,-8.228036880493164062e+00,-8.143759727478027344e+00,-8.002092361450195312e+00,-7.884998798370361328e+00,-8.022830963134765625e+00,-7.964202880859375000e+00,-7.965404987335205078e+00,-7.757388591766357422e+00,-7.624711990356445312e+00,-7.822781085968017578e+00,-8.016078948974609375e+00,-7.968581199645996094e+00,-7.839401721954345703e+00,-7.853000640869140625e+00,-7.715191364288330078e+00,-7.472618579864501953e+00,-7.394641876220703125e+00,-7.406970977783203125e+00,-7.712949275970458984e+00,-7.822964668273925781e+00,-7.615948677062988281e+00,-7.649852752685546875e+00,-7.776865005493164062e+00,-7.713381767272949219e+00,-7.735722541809082031e+00,-7.762242794036865234e+00,-7.638835906982421875e+00,-7.624200820922851562e+00,-7.518306732177734375e+00,-7.603361129760742188e+00,-7.562331676483154297e+00,-7.537514209747314453e+00,-7.720748901367187500e+00,-7.532842159271240234e+00,-7.509676933288574219e+00,-7.470050811767578125e+00,nan,nan,nan,nan,nan,nan,nan,nan,nan,nan,nan,nan,nan,nan,nan,nan,nan
-7.864229202270507812e+00,-7.935079574584960938e+00,-8.248311042785644531e+00,-8.418603897094726562e+00,-8.559394836425781250e+00,-8.282745361328125000e+00,-8.686712265014648438e+00,-7.602925300598144531e+00,-7.661858081817626953e+00,-7.507215976715087891e+00,-8.252702713012695312e+00,-7.498510360717773438e+00,-7.487795829772949219e+00,-8.184693336486816406e+00,-8.186388015747070312e+00,-8.145039558410644531e+00,-8.149174690246582031e+00,-8.480677604675292969e+00,-7.757506370544433594e+00,-9.523931503295898438e+00,-9.685132980346679688e+00,-7.704208374023437500e+00,-7.699000358581542969e+00,-8.553390502929687500e+00,-8.649186134338378906e+00,-8.480852127075195312e+00,nan,-8.452181816101074219e+00,nan,-8.532814979553222656e+00,-8.514797210693359375e+00,-8.513130187988281250e+00,-8.460162162780761719e+00,-8.415979385375976562e+00,nan,-8.891315460205078125e+00,-8.491570472717285156e+00,-8.509428977966308594e+00,-8.494237899780273438e+00,-8.603641510009765625e+00,-8.644139289855957031e+00,-8.543656349182128906e+00,-8.523618698120117188e+00,-8.688802719116210938e+00,-8.297122955322265625e+00,-8.306682586669921875e+00,-8.259378433227539062e+00,-8.391407966613769531e+00,-8.337442398071289062e+00,-8.350341796875000000e+00,-8.377964019775390625e+00,-8.755427360534667969e+00,-8.935810089111328125e+00,-8.997322082519531250e+00,-9.032367706298828125e+00,-8.491641998291015625e+00,-8.471570014953613281e+00,-9.067316055297851562e+00,-8.943172454833984375e+00,-9.065356254577636719e+00,-9.160095214843750000e+00,-9.133108139038085938e+00,-9.009517669677734375e+00,-8.928708076477050781e+00,-8.276481628417968750e+00,-8.996768951416015625e+00,-9.010937690734863281e+00,-8.974040985107421875e+00,-8.872887611389160156e+00,-8.802515029907226562e+00,-9.091491699218750000e+00,-8.399188041687011719e+00,-8.660243034362792969e+00,-8.719729423522949219e+00,-8.820920944213867188e+00,-8.832355499267578125e+00,-8.811125755310058594e+00,-8.942880630493164062e+00,-9.016630172729492188e+00,-8.839056968688964844e+00,-8.701765060424804688e+00,nan,nan,nan,-8.700465202331542969e+00,-8.728569984436035156e+00,-8.550014495849609375e+00,-8.553933143615722656e+00,-8.522237777709960938e+00,-8.475687980651855469e+00,-8.465430259704589844e+00,-8.497499465942382812e+00,-8.450268745422363281e+00,nan,-8.455367088317871094e+00,-8.451967239379882812e+00,-8.444236755371093750e+00,-8.480834960937500000e+00,nan,nan,-8.549037933349609375e+00,-8.379220962524414062e+00,-8.388440132141113281e+00,nan,-8.297784805297851562e+00,-8.357567787170410156e+00,-8.356552124023437500e+00,-8.332339286804199219e+00,-8.334812164306640625e+00,-8.205520629882812500e+00,-8.186421394348144531e+00,-8.201104164123535156e+00,-8.106784820556640625e+00,-8.128707885742187500e+00,-8.082161903381347656e+00,-8.015910148620605469e+00,-7.978067398071289062e+00,-7.827654838562011719e+00,-7.839817047119140625e+00,-7.999200344085693359e+00,-7.956366539001464844e+00,-7.865471839904785156e+00,-7.997484207153320312e+00,-7.949677944183349609e+00,-7.805706024169921875e+00,-7.880354881286621094e+00,-7.367980480194091797e+00,-7.740301132202148438e+00,-7.370317935943603516e+00,-7.544290542602539062e+00,-7.639373779296875000e+00,-7.742388725280761719e+00,-7.620446681976318359e+00,-7.664584636688232422e+00,-7.715890884399414062e+00,-7.569887638092041016e+00,-7.667661666870117188e+00,-7.650161266326904297e+00,-7.617767333984375000e+00,-7.574550628662109375e+00,-7.687853813171386719e+00,-7.674374103546142578e+00,-7.513720512390136719e+00,-7.483089447021484375e+00,nan,-7.505223751068115234e+00,-7.458796501159667969e+00,-7.442898750305175781e+00,nan,nan,nan,nan,nan,nan,nan,nan,nan,nan,nan,nan,nan,nan,nan,nan,nan
-8.097309112548828125e+00,-7.633387565612792969e+00,-7.470902442932128906e+00,-8.341182708740234375e+00,-8.163887977600097656e+00,-8.129348754882812500e+00,-6.720121383666992188e+00,-8.669072151184082031e+00,-8.336997032165527344e+00,-8.226509094238281250e+00,-8.254065513610839844e+00,-8.731412887573242188e+00,-8.578107833862304688e+00,-8.560564994812011719e+00,-8.183959007263183594e+00,-8.009447097778320312e+00,-8.136643409729003906e+00,-8.118788719177246094e+00,-8.418353080749511719e+00,-8.586997985839843750e+00,-8.557814598083496094e+00,-8.501334190368652344e+00,nan,-8.494236946105957031e+00,-8.744470596313476562e+00,-8.524358749389648438e+00,-8.432000160217285156e+00,-8.343193054199218750e+00,-8.589884757995605469e+00,-8.495492935180664062e+00,-8.521760940551757812e+00,-8.769293785095214844e+00,-8.448035240173339844e+00,-8.326154708862304688e+00,-8.693248748779296875e+00,-8.794871330261230469e+00,-8.658786773681640625e+00,-8.759449958801269531e+00,-8.609998703002929688e+00,-8.433432579040527344e+00,-8.770135879516601562e+00,-8.641315460205078125e+00,-8.570668220520019531e+00,nan,-8.265183448791503906e+00,-8.300743103027343750e+00,-8.303262710571289062e+00,-8.459261894226074219e+00,-8.334054946899414062e+00,-8.398180961608886719e+00,-8.345630645751953125e+00,-8.986207008361816406e+00,-9.011619567871093750e+00,-9.211714744567871094e+00,-9.160862922668457031e+00,-8.419895172119140625e+00,-8.584749221801757812e+00,-9.027688980102539062e+00,-9.096757888793945312e+00,-9.046300888061523438e+00,-9.103635787963867188e+00,-9.137269973754882812e+00,-9.138864517211914062e+00,-8.715412139892578125e+00,-9.059061050415039062e+00,-9.004447937011718750e+00,-8.903349876403808594e+00,-8.889390945434570312e+00,-8.806617736816406250e+00,-8.304668426513671875e+00,-8.780366897583007812e+00,-8.859823226928710938e+00,-8.686983108520507812e+00,-8.870616912841796875e+00,-8.826846122741699219e+00,-8.866262435913085938e+00,-8.891887664794921875e+00,-8.802168846130371094e+00,-8.941928863525390625e+00,-8.772612571716308594e+00,-8.675977706909179688e+00,-8.662390708923339844e+00,-8.953619003295898438e+00,-8.650106430053710938e+00,nan,-8.567202568054199219e+00,-8.558834075927734375e+00,-8.559786796569824219e+00,-8.498912811279296875e+00,-8.493071556091308594e+00,-8.451092720031738281e+00,-8.506293296813964844e+00,-8.420657157897949219e+00,-8.460678100585937500e+00,-8.438355445861816406e+00,-8.419686317443847656e+00,-8.437949180603027344e+00,-8.423846244812011719e+00,-8.363803863525390625e+00,nan,nan,-8.380840301513671875e+00,-8.325795173645019531e+00,-8.340350151062011719e+00,-8.346820831298828125e+00,-8.246915817260742188e+00,-8.274798393249511719e+00,-8.211526870727539062e+00,-8.175806999206542969e+00,-8.151590347290039062e+00,-8.126014709472656250e+00,nan,-8.090798377990722656e+00,nan,nan,-8.104337692260742188e+00,-7.962592601776123047e+00,-7.759217739105224609e+00,-7.764220714569091797e+00,-7.912030220031738281e+00,-7.887241840362548828e+00,-7.982851028442382812e+00,-7.952297210693359375e+00,-7.884103775024414062e+00,-7.794763088226318359e+00,-7.361690998077392578e+00,-7.360985279083251953e+00,-7.440323352813720703e+00,-7.550180435180664062e+00,-7.116797924041748047e+00,-7.594220638275146484e+00,-7.836017608642578125e+00,-7.494853973388671875e+00,-7.554725646972656250e+00,-7.439663410186767578e+00,-7.451107025146484375e+00,-7.773308277130126953e+00,-7.567694187164306641e+00,-7.572140693664550781e+00,-7.542927265167236328e+00,-7.514978885650634766e+00,-7.519385814666748047e+00,-7.507973670959472656e+00,nan,-7.473777770996093750e+00,-7.480625629425048828e+00,nan,-7.440351009368896484e+00,-7.532595634460449219e+00,nan,nan,nan,nan,nan,nan,nan,nan,nan,nan,nan,nan,nan,nan,nan,nan
-7.980061054229736328e+00,-7.770888805389404297e+00,-6.465619087219238281e+00,-8.929304122924804688e+00,-1.013553047180175781e+01,-8.883048057556152344e+00,-8.537801742553710938e+00,-8.954088211059570312e+00,-8.726595878601074219e+00,-8.239350318908691406e+00,-8.244710922241210938e+00,-8.248990058898925781e+00,-8.571684837341308594e+00,-7.834359169006347656e+00,-8.125866889953613281e+00,-8.060724258422851562e+00,-8.135271072387695312e+00,-7.791665077209472656e+00,-7.446358203887939453e+00,-7.780830383300781250e+00,-9.779627799987792969e+00,-8.624654769897460938e+00,-8.656581878662109375e+00,-8.715011596679687500e+00,-8.391453742980957031e+00,-8.478603363037109375e+00,nan,-8.492056846618652344e+00,-8.420216560363769531e+00,-8.437767028808593750e+00,-8.452445983886718750e+00,-8.478145599365234375e+00,-8.509334564208984375e+00,-8.635020256042480469e+00,-8.658925056457519531e+00,-8.525982856750488281e+00,-8.814413070678710938e+00,-8.674558639526367188e+00,-8.527405738830566406e+00,-8.632139205932617188e+00,-8.810326576232910156e+00,-8.599356651306152344e+00,-8.721826553344726562e+00,-8.482334136962890625e+00,-8.358540534973144531e+00,-8.589065551757812500e+00,-8.380142211914062500e+00,-8.395928382873535156e+00,-8.391713142395019531e+00,-8.413868904113769531e+00,-8.558783531188964844e+00,-8.706258773803710938e+00,-9.015280723571777344e+00,-8.957107543945312500e+00,-9.189164161682128906e+00,-8.402403831481933594e+00,-8.822321891784667969e+00,-9.077129364013671875e+00,-9.080425262451171875e+00,nan,-9.136245727539062500e+00,-9.010832786560058594e+00,-9.090898513793945312e+00,-9.037321090698242188e+00,-8.956988334655761719e+00,-8.963006973266601562e+00,-8.970956802368164062e+00,-9.020834922790527344e+00,-8.919874191284179688e+00,-8.840105056762695312e+00,-8.866851806640625000e+00,-8.828792572021484375e+00,-8.401511192321777344e+00,-8.781682968139648438e+00,-8.795371055603027344e+00,-8.766883850097656250e+00,-8.735631942749023438e+00,-8.728389739990234375e+00,-8.862585067749023438e+00,-8.825774192810058594e+00,-8.734914779663085938e+00,-8.641057968139648438e+00,-8.630208015441894531e+00,-8.617055892944335938e+00,-8.597308158874511719e+00,-8.526997566223144531e+00,nan,-8.512712478637695312e+00,-8.466850280761718750e+00,-8.454357147216796875e+00,-8.435759544372558594e+00,-8.447113037109375000e+00,-8.437141418457031250e+00,-8.510295867919921875e+00,-8.426593780517578125e+00,-8.398552894592285156e+00,nan,nan,nan,nan,-8.349153518676757812e+00,-8.330704689025878906e+00,-8.277412414550781250e+00,nan,-8.232220649719238281e+00,-8.211996078491210938e+00,-8.276973724365234375e+00,-8.221130371093750000e+00,-8.154573440551757812e+00,-8.143742561340332031e+00,-8.111784934997558594e+00,-8.112682342529296875e+00,-8.137966156005859375e+00,-8.077612876892089844e+00,-8.008944511413574219e+00,-7.973606109619140625e+00,-7.843208312988281250e+00,-7.807196617126464844e+00,-7.797468185424804688e+00,-7.575970172882080078e+00,-7.922651290893554688e+00,-7.863805294036865234e+00,-7.943153858184814453e+00,-7.820358753204345703e+00,-7.731518268585205078e+00,-7.530256271362304688e+00,-7.485383510589599609e+00,-7.527171134948730469e+00,-7.476220130920410156e+00,-7.575717926025390625e+00,-6.950796127319335938e+00,-7.404453277587890625e+00,-7.548774719238281250e+00,-7.469781875610351562e+00,-7.671331882476806641e+00,-7.582877159118652344e+00,-7.596282958984375000e+00,-7.655179977416992188e+00,-7.580644607543945312e+00,-7.524353027343750000e+00,-7.512409210205078125e+00,-7.508201599121093750e+00,-7.510372638702392578e+00,-7.563935756683349609e+00,nan,-7.430239677429199219e+00,nan,-7.421307563781738281e+00,-7.426435470581054688e+00,nan,nan,nan,nan,nan,nan,nan,nan,nan,nan,nan,nan,nan,nan,nan,nan
-8.688731193542480469e+00,-8.628941535949707031e+00,-9.359510421752929688e+00,-8.898929595947265625e+00,-8.746915817260742188e+00,-8.911211013793945312e+00,-8.825582504272460938e+00,-8.650272369384765625e+00,-8.821368217468261719e+00,-8.329181671142578125e+00,-8.260228157043457031e+00,-7.842854022979736328e+00,-7.843819618225097656e+00,-8.624970436096191406e+00,-8.163093566894531250e+00,nan,-8.715888977050781250e+00,-8.622478485107421875e+00,-7.416471481323242188e+00,-8.169776916503906250e+00,-7.717973232269287109e+00,-8.496809959411621094e+00,-8.490784645080566406e+00,-8.673572540283203125e+00,-8.424213409423828125e+00,-8.454186439514160156e+00,-8.424647331237792969e+00,-8.510360717773437500e+00,-8.488015174865722656e+00,-8.496141433715820312e+00,-8.450903892517089844e+00,-8.447950363159179688e+00,-8.786241531372070312e+00,nan,-8.603187561035156250e+00,-8.676543235778808594e+00,-8.752565383911132812e+00,-8.555991172790527344e+00,-8.785303115844726562e+00,-8.660251617431640625e+00,-8.691750526428222656e+00,-8.831147193908691406e+00,-8.670794486999511719e+00,-8.659472465515136719e+00,-8.394933700561523438e+00,-8.279608726501464844e+00,-8.371144294738769531e+00,-8.435258865356445312e+00,-8.370896339416503906e+00,-8.389015197753906250e+00,-8.461844444274902344e+00,-8.741555213928222656e+00,-9.087524414062500000e+00,-9.108468055725097656e+00,-8.525164604187011719e+00,-8.404990196228027344e+00,-9.086189270019531250e+00,-9.073764801025390625e+00,-8.963777542114257812e+00,-9.075385093688964844e+00,nan,-8.972911834716796875e+00,-8.997396469116210938e+00,-9.020247459411621094e+00,-8.885843276977539062e+00,-8.998257637023925781e+00,-8.932573318481445312e+00,-8.896482467651367188e+00,-8.903705596923828125e+00,-8.689657211303710938e+00,-8.837087631225585938e+00,-8.741940498352050781e+00,-8.781488418579101562e+00,-8.758617401123046875e+00,-8.766706466674804688e+00,nan,-8.747756958007812500e+00,-8.749291419982910156e+00,-8.709934234619140625e+00,-8.907191276550292969e+00,-8.652405738830566406e+00,nan,nan,-8.584384918212890625e+00,-8.557204246520996094e+00,-8.538902282714843750e+00,-8.626835823059082031e+00,-8.490474700927734375e+00,-8.476069450378417969e+00,-8.445164680480957031e+00,-8.429505348205566406e+00,-8.431962966918945312e+00,-8.417236328125000000e+00,-8.491305351257324219e+00,-8.394381523132324219e+00,nan,-8.413135528564453125e+00,-8.444411277770996094e+00,nan,-8.267280578613281250e+00,-8.343429565429687500e+00,-8.275307655334472656e+00,-8.325119018554687500e+00,nan,-8.233649253845214844e+00,-8.274315834045410156e+00,-8.171348571777343750e+00,-8.171980857849121094e+00,-8.159856796264648438e+00,-8.089966773986816406e+00,-8.078100204467773438e+00,-8.079567909240722656e+00,-8.197919845581054688e+00,-8.176922798156738281e+00,-8.119168281555175781e+00,-7.918932914733886719e+00,-7.800865173339843750e+00,-7.768633365631103516e+00,-7.813703536987304688e+00,-7.575923442840576172e+00,-7.645159721374511719e+00,-7.764834403991699219e+00,-7.739364147186279297e+00,-7.481536388397216797e+00,-7.648879528045654297e+00,-7.524451255798339844e+00,-7.477805137634277344e+00,-7.498768329620361328e+00,-7.183187484741210938e+00,-7.493876457214355469e+00,-7.460206985473632812e+00,-7.668732643127441406e+00,-7.567689895629882812e+00,-7.597145080566406250e+00,-7.613266944885253906e+00,-7.502092361450195312e+00,-7.549688816070556641e+00,-7.570342063903808594e+00,nan,-7.496984481811523438e+00,-7.496796607971191406e+00,-7.485128879547119141e+00,nan,nan,-7.615817070007324219e+00,-7.416750431060791016e+00,-7.420285701751708984e+00,-7.416744709014892578e+00,-7.411978244781494141e+00,nan,nan,nan,nan,nan,nan,nan,nan,nan,nan,nan,nan,nan,nan,nan,nan
-8.833174705505371094e+00,-8.718912124633789062e+00,-8.849667549133300781e+00,-8.844315528869628906e+00,-8.842517852783203125e+00,-8.862834930419921875e+00,-8.893535614013671875e+00,-8.857141494750976562e+00,-8.947420120239257812e+00,-8.764683723449707031e+00,-8.733798980712890625e+00,-8.065520286560058594e+00,-8.437350273132324219e+00,-8.172716140747070312e+00,-8.154225349426269531e+00,-8.140669822692871094e+00,-8.698755264282226562e+00,-8.649013519287109375e+00,-8.521496772766113281e+00,-8.483577728271484375e+00,-8.633958816528320312e+00,-8.458938598632812500e+00,-8.469542503356933594e+00,-8.497314453125000000e+00,-8.544069290161132812e+00,-8.406702995300292969e+00,-8.414993286132812500e+00,-8.489183425903320312e+00,-8.496742248535156250e+00,-8.367625236511230469e+00,nan,nan,-8.546320915222167969e+00,-8.652787208557128906e+00,-8.635743141174316406e+00,-8.709149360656738281e+00,-8.744303703308105469e+00,-8.694185256958007812e+00,-8.731400489807128906e+00,-8.819586753845214844e+00,-8.934339523315429688e+00,-8.707449913024902344e+00,-8.808357238769531250e+00,-8.503186225891113281e+00,-8.567775726318359375e+00,-8.491055488586425781e+00,-8.413503646850585938e+00,-8.441017150878906250e+00,-8.359549522399902344e+00,-8.420318603515625000e+00,nan,-8.528376579284667969e+00,-9.098487854003906250e+00,-9.107109069824218750e+00,-8.678134918212890625e+00,-8.378316879272460938e+00,-9.019105911254882812e+00,-8.944480895996093750e+00,-8.893359184265136719e+00,-9.049263954162597656e+00,-8.030534744262695312e+00,-9.064018249511718750e+00,-9.102078437805175781e+00,-8.992386817932128906e+00,-8.962920188903808594e+00,-8.956168174743652344e+00,-8.902283668518066406e+00,-8.890711784362792969e+00,-8.844759941101074219e+00,-8.850864410400390625e+00,-8.807107925415039062e+00,-8.819775581359863281e+00,-8.754673957824707031e+00,-8.748884201049804688e+00,-8.752489089965820312e+00,-8.690456390380859375e+00,-8.781538009643554688e+00,-8.692617416381835938e+00,nan,nan,nan,nan,nan,-8.565902709960937500e+00,-8.537541389465332031e+00,-8.509293556213378906e+00,-8.592191696166992188e+00,-8.470949172973632812e+00,-8.449663162231445312e+00,-8.507603645324707031e+00,-8.431004524230957031e+00,nan,-8.474233627319335938e+00,-8.358450889587402344e+00,-8.361246109008789062e+00,nan,-8.399513244628906250e+00,-8.306673049926757812e+00,nan,-8.307131767272949219e+00,-8.250471115112304688e+00,-8.230063438415527344e+00,-8.210100173950195312e+00,-8.171705245971679688e+00,nan,-8.139154434204101562e+00,-8.167363166809082031e+00,-8.203489303588867188e+00,-8.110481262207031250e+00,-8.140344619750976562e+00,-8.205452919006347656e+00,-8.224832534790039062e+00,-7.993448257446289062e+00,-8.135737419128417969e+00,-7.910975933074951172e+00,-7.812209606170654297e+00,-7.803369998931884766e+00,-7.815796375274658203e+00,-7.820375442504882812e+00,-7.628052711486816406e+00,-7.743340969085693359e+00,-7.735141277313232422e+00,-7.538575172424316406e+00,-7.447991847991943359e+00,-7.487733364105224609e+00,-7.512107849121093750e+00,-7.469210624694824219e+00,-7.537403583526611328e+00,-7.480094432830810547e+00,-7.552704811096191406e+00,-7.472721576690673828e+00,-7.715775489807128906e+00,-7.577981948852539062e+00,-7.555819988250732422e+00,-7.544227600097656250e+00,-7.391132831573486328e+00,-7.451633453369140625e+00,-7.498983860015869141e+00,-7.481201171875000000e+00,-7.488975048065185547e+00,-7.482938766479492188e+00,-7.616650104522705078e+00,-7.489607810974121094e+00,-7.445674419403076172e+00,-7.412897586822509766e+00,-7.599819660186767578e+00,-7.414625644683837891e+00,-7.478072643280029297e+00,-7.394096374511718750e+00,nan,nan,nan,nan,nan,nan,nan,nan,nan,nan,nan,nan,nan,nan,nan,nan
