-4.556001663208007812e+00,-4.297693252563476562e+00,-1.070239448547363281e+01,-1.104200649261474609e+01,-1.105989456176757812e+01,-3.384207725524902344e+00,-3.347358703613281250e+00,-3.330786705017089844e+00,-1.103000164031982422e+01,-2.374651432037353516e+00,-7.534776687622070312e+00,-7.092075347900390625e+00,-3.950809478759765625e+00,-8.644760131835937500e+00,-1.112582206726074219e+01,-1.032532405853271484e+01,-8.264822006225585938e+00,-6.871120452880859375e+00,-6.860478878021240234e+00,-7.233073234558105469e+00,-6.818726539611816406e+00,-7.262196063995361328e+00,-7.732772350311279297e+00,-9.421296119689941406e+00,-8.382543563842773438e+00,-8.380630493164062500e+00,-8.288417816162109375e+00,-2.991328716278076172e+00,-2.525125980377197266e+00,-8.332242012023925781e+00,-3.987322092056274414e+00,-3.011694431304931641e+00,-2.197947978973388672e+00,-3.359572649002075195e+00,-5.123798847198486328e+00,-3.518884658813476562e+00,-5.122080802917480469e+00,-7.654707908630371094e+00,-4.083086967468261719e+00,-4.071953296661376953e+00,-4.072726249694824219e+00,-5.106693267822265625e+00,-5.588062286376953125e+00,-5.587630271911621094e+00,-5.590262889862060547e+00,-6.071119308471679688e+00,-4.571680068969726562e+00,-5.971347332000732422e+00,-4.167103290557861328e+00,-9.400551795959472656e+00,-5.454989433288574219e+00,-3.674654245376586914e+00,-7.738319873809814453e+00,-7.885621070861816406e+00,-8.026443481445312500e+00,-8.173824310302734375e+00,-8.254870414733886719e+00,nan,nan,nan,nan,-9.276604652404785156e+00,-4.027974605560302734e+00,-4.040002822875976562e+00,-4.036600589752197266e+00,-4.020897865295410156e+00,-4.971046447753906250e+00,-4.966839790344238281e+00,-4.008571624755859375e+00,-4.000696182250976562e+00,-5.882415771484375000e+00,-5.396188735961914062e+00,-5.144906997680664062e+00,-8.853584289550781250e+00,-5.394556522369384766e+00,-5.400847911834716797e+00,-7.183428287506103516e+00,-5.826056480407714844e+00,-5.823755264282226562e+00,-7.158978939056396484e+00,-5.352423191070556641e+00,-5.509659290313720703e+00,-5.495112419128417969e+00,-5.624807834625244141e+00,nan,-6.075694084167480469e+00,-6.395418167114257812e+00,-6.204361438751220703e+00,-6.650392532348632812e+00,-6.644444942474365234e+00,-8.024662017822265625e+00,-8.403335571289062500e+00,-7.529799938201904297e+00,-7.528099060058593750e+00,-7.657920360565185547e+00,-8.429050445556640625e+00,-8.447467803955078125e+00,-8.150801658630371094e+00,-8.055486679077148438e+00,-9.502344131469726562e+00,-9.432981491088867188e+00,-9.631232261657714844e+00,-9.144951820373535156e+00,-9.372815132141113281e+00,-9.101782798767089844e+00,-8.722157478332519531e+00,-8.629007339477539062e+00,-9.353859901428222656e+00,-8.944047927856445312e+00,-9.663241386413574219e+00,-9.552375793457031250e+00,-9.371850967407226562e+00,-8.563019752502441406e+00,-8.769478797912597656e+00,-8.820899963378906250e+00,-8.786029815673828125e+00,-8.858034133911132812e+00,-8.842876434326171875e+00,-8.922052383422851562e+00,-8.830374717712402344e+00,-8.750139236450195312e+00,-8.711722373962402344e+00,-8.741158485412597656e+00,-9.162665367126464844e+00,-9.206327438354492188e+00,-9.136646270751953125e+00,-8.663549423217773438e+00,-8.988759994506835938e+00,-8.687573432922363281e+00,-8.787439346313476562e+00,-8.688671112060546875e+00,-8.483599662780761719e+00,-8.457810401916503906e+00,-8.457182884216308594e+00,-8.557506561279296875e+00,-8.908350944519042969e+00,-8.486101150512695312e+00,-8.446670532226562500e+00,-8.394144058227539062e+00,-8.475779533386230469e+00,-8.925227165222167969e+00,-8.618599891662597656e+00,-8.532762527465820312e+00,-8.768051147460937500e+00,-8.585870742797851562e+00,-8.519754409790039062e+00,-8.529458999633789062e+00,-8.692580223083496094e+00,-8.604515075683593750e+00,-8.639670372009277344e+00,-8.623352050781250000e+00,-8.607487678527832031e+00,-8.561531066894531250e+00,-8.515851020812988281e+00,-8.520482063293457031e+00,-8.542811393737792969e+00,-8.507905006408691406e+00,-8.439662933349609375e+00,-8.477672576904296875e+00,-8.312284469604492188e+00,-8.450656890869140625e+00,-8.524670600891113281e+00,-8.304965972900390625e+00,-8.374588966369628906e+00,-8.370933532714843750e+00
-3.319194793701171875e+00,-3.818741559982299805e+00,-1.112331008911132812e+01,-1.124761962890625000e+01,-3.042541980743408203e+00,-3.575868129730224609e+00,-3.369574308395385742e+00,-3.361351013183593750e+00,-1.112632751464843750e+01,-1.112653732299804688e+01,-2.741474628448486328e+00,-3.993322610855102539e+00,-1.129532527923583984e+01,-1.120558929443359375e+01,-8.724513053894042969e+00,-1.049847602844238281e+01,-1.112113571166992188e+01,-6.878376960754394531e+00,-7.732966423034667969e+00,-9.759503364562988281e+00,-7.354385375976562500e+00,-7.377779006958007812e+00,-7.296248435974121094e+00,-9.577064514160156250e+00,-9.569478988647460938e+00,-8.390723228454589844e+00,-8.388450622558593750e+00,-2.917999744415283203e+00,-2.670600891113281250e+00,-2.990522384643554688e+00,-4.010336875915527344e+00,-4.062565803527832031e+00,-2.975400447845458984e+00,-2.441763877868652344e+00,-5.134013175964355469e+00,-5.131976604461669922e+00,-5.138908386230468750e+00,-6.150979995727539062e+00,-4.095381736755371094e+00,-5.137628555297851562e+00,-7.116586685180664062e+00,-7.107833862304687500e+00,-7.091524124145507812e+00,-7.083982467651367188e+00,-4.100577354431152344e+00,-4.092121124267578125e+00,-4.607723236083984375e+00,-5.591346740722656250e+00,-5.582530021667480469e+00,-9.477582931518554688e+00,-9.504516601562500000e+00,-9.589221954345703125e+00,-7.823555946350097656e+00,-7.760347366333007812e+00,-7.753556728363037109e+00,-8.206420898437500000e+00,-8.228419303894042969e+00,nan,nan,nan,-9.331510543823242188e+00,-9.303390502929687500e+00,-3.801909208297729492e+00,-4.059256076812744141e+00,-5.013969421386718750e+00,-5.016119003295898438e+00,-5.237049102783203125e+00,-8.161713600158691406e+00,-8.159591674804687500e+00,-5.903755187988281250e+00,-5.649081230163574219e+00,-4.755119323730468750e+00,-4.974375247955322266e+00,-4.960882186889648438e+00,-5.404968261718750000e+00,-5.409729480743408203e+00,-7.182281970977783203e+00,-6.681066036224365234e+00,-4.934273242950439453e+00,-4.922115325927734375e+00,-4.910837173461914062e+00,-5.816253185272216797e+00,-4.917008876800537109e+00,-5.635693073272705078e+00,nan,-8.927366256713867188e+00,-6.395916461944580078e+00,-6.210292816162109375e+00,-7.877315521240234375e+00,-6.654273033142089844e+00,-8.026603698730468750e+00,-7.595291614532470703e+00,-7.079416751861572266e+00,-8.425018310546875000e+00,-8.420284271240234375e+00,-8.422743797302246094e+00,-8.491616249084472656e+00,-8.298083305358886719e+00,-8.157402038574218750e+00,-8.125939369201660156e+00,-9.695895195007324219e+00,-9.575880050659179688e+00,-9.145819664001464844e+00,-9.019739151000976562e+00,-9.386438369750976562e+00,-9.565179824829101562e+00,-8.903418540954589844e+00,-8.980644226074218750e+00,-9.086905479431152344e+00,-9.017232894897460938e+00,-9.567049026489257812e+00,-9.524147033691406250e+00,-9.532562255859375000e+00,-8.952445983886718750e+00,-8.813676834106445312e+00,-8.810396194458007812e+00,-8.814123153686523438e+00,-8.942192077636718750e+00,-8.955343246459960938e+00,-8.806818008422851562e+00,-8.760425567626953125e+00,-8.710638999938964844e+00,-8.731985092163085938e+00,-9.335797309875488281e+00,-8.686500549316406250e+00,-9.104868888854980469e+00,-8.634135246276855469e+00,-8.618873596191406250e+00,-8.580057144165039062e+00,-8.845216751098632812e+00,-8.437234878540039062e+00,-8.375953674316406250e+00,-8.491274833679199219e+00,-8.442868232727050781e+00,-8.518723487854003906e+00,-8.466903686523437500e+00,-8.422482490539550781e+00,-8.744251251220703125e+00,-8.499823570251464844e+00,-8.492466926574707031e+00,-8.661546707153320312e+00,-8.924586296081542969e+00,-8.656539916992187500e+00,-8.776913642883300781e+00,-8.689517021179199219e+00,-8.570697784423828125e+00,-8.731896400451660156e+00,-8.662044525146484375e+00,-8.603080749511718750e+00,-8.629107475280761719e+00,-8.613595962524414062e+00,-8.582846641540527344e+00,-8.601874351501464844e+00,-8.591268539428710938e+00,-8.437744140625000000e+00,-8.475508689880371094e+00,-8.490046501159667969e+00,-8.481444358825683594e+00,-8.386147499084472656e+00,-8.421241760253906250e+00,-8.396927833557128906e+00,-8.391730308532714844e+00,-8.398504257202148438e+00,-8.385983467102050781e+00,-8.394544601440429688e+00
-3.339126110076904297e+00,-3.489544153213500977e+00,-3.945066928863525391e+00,-4.010702133178710938e+00,-3.052948474884033203e+00,-3.047539234161376953e+00,-1.125572776794433594e+01,-1.114968585968017578e+01,-1.120070075988769531e+01,-1.132971000671386719e+01,-2.579305171966552734e+00,-2.490410804748535156e+00,nan,-1.117470359802246094e+01,nan,nan,-7.056578159332275391e+00,-2.273239612579345703e+00,-7.529145717620849609e+00,-7.985322952270507812e+00,-7.308599472045898438e+00,-9.669477462768554688e+00,-7.925816059112548828e+00,-9.684365272521972656e+00,-8.807737350463867188e+00,-8.401523590087890625e+00,-1.123766708374023438e+01,-2.062539100646972656e+00,-2.444606781005859375e+00,-3.007173061370849609e+00,-3.033719539642333984e+00,-2.483051776885986328e+00,-2.497616291046142578e+00,-2.501773357391357422e+00,-2.501800060272216797e+00,-6.187829017639160156e+00,-6.179124832153320312e+00,-6.167214870452880859e+00,-5.157881259918212891e+00,-5.153837203979492188e+00,-7.125503063201904297e+00,-5.137701034545898438e+00,-7.098016262054443359e+00,-4.650115489959716797e+00,-4.640211105346679688e+00,-5.129175662994384766e+00,-4.635649204254150391e+00,-5.596467971801757812e+00,-5.426448822021484375e+00,-9.307265281677246094e+00,-9.520359039306640625e+00,nan,-9.462560653686523438e+00,-7.733636379241943359e+00,-7.722045898437500000e+00,nan,-8.209886550903320312e+00,-1.053339481353759766e+01,-1.055764102935791016e+01,-8.205510139465332031e+00,-8.163590431213378906e+00,-9.268792152404785156e+00,-3.840499162673950195e+00,-9.204475402832031250e+00,-8.242271423339843750e+00,-8.186235427856445312e+00,-8.191816329956054688e+00,-8.153809547424316406e+00,-5.696502208709716797e+00,-5.913679599761962891e+00,-4.695366859436035156e+00,-4.715458869934082031e+00,-4.984880447387695312e+00,-8.741322517395019531e+00,-8.723313331604003906e+00,-6.811624050140380859e+00,-6.302574634552001953e+00,-6.298116683959960938e+00,-4.943036079406738281e+00,-5.394078254699707031e+00,-5.834722518920898438e+00,-4.938358306884765625e+00,-4.937362670898437500e+00,-4.923366069793701172e+00,-3.526154518127441406e+00,nan,-8.767892837524414062e+00,-6.220655441284179688e+00,-7.980013847351074219e+00,-8.418418884277343750e+00,-8.413163185119628906e+00,-8.437280654907226562e+00,-8.461651802062988281e+00,-8.408980369567871094e+00,-8.479066848754882812e+00,-8.439493179321289062e+00,-8.442472457885742188e+00,-8.392541885375976562e+00,-8.022725105285644531e+00,-8.102386474609375000e+00,-9.548846244812011719e+00,-9.310941696166992188e+00,-9.007607460021972656e+00,-9.597912788391113281e+00,-8.651168823242187500e+00,-8.900324821472167969e+00,-9.060386657714843750e+00,-8.803003311157226562e+00,-8.993049621582031250e+00,-9.041391372680664062e+00,-9.587512969970703125e+00,-9.537868499755859375e+00,-9.442399024963378906e+00,-9.320172309875488281e+00,-8.903705596923828125e+00,-8.924338340759277344e+00,-9.303277015686035156e+00,-8.933572769165039062e+00,-8.997647285461425781e+00,-8.973531723022460938e+00,-9.161046981811523438e+00,-8.772348403930664062e+00,-8.788610458374023438e+00,-9.292833328247070312e+00,-9.027122497558593750e+00,-8.555477142333984375e+00,-8.526969909667968750e+00,-8.449756622314453125e+00,-8.474781036376953125e+00,-8.414324760437011719e+00,-8.386664390563964844e+00,-8.396873474121093750e+00,-8.563135147094726562e+00,-8.672302246093750000e+00,-8.646789550781250000e+00,-8.821161270141601562e+00,-8.868921279907226562e+00,-8.627422332763671875e+00,-8.519555091857910156e+00,-8.862283706665039062e+00,-8.811322212219238281e+00,-8.638954162597656250e+00,-8.592161178588867188e+00,-8.714102745056152344e+00,-8.647322654724121094e+00,-8.605778694152832031e+00,-8.589050292968750000e+00,-8.578958511352539062e+00,-8.560735702514648438e+00,-8.571535110473632812e+00,-8.499748229980468750e+00,-8.978760719299316406e+00,-8.534029960632324219e+00,-8.592235565185546875e+00,-8.466773033142089844e+00,-8.607463836669921875e+00,-8.477677345275878906e+00,-8.446688652038574219e+00,-8.388006210327148438e+00,-8.345138549804687500e+00,-8.376969337463378906e+00,-8.382456779479980469e+00,-8.394725799560546875e+00,-8.402200698852539062e+00,-8.379242897033691406e+00
-7.587737560272216797e+00,-1.126116275787353516e+01,-4.054025650024414062e+00,-3.184454441070556641e+00,-3.108603954315185547e+00,-2.830265998840332031e+00,-3.226767063140869141e+00,-3.455317258834838867e+00,-3.463253021240234375e+00,-2.761145114898681641e+00,-1.122870826721191406e+01,-2.538303375244140625e+00,-1.123516464233398438e+01,-2.526494026184082031e+00,nan,nan,-2.087398529052734375e+00,-6.690527439117431641e+00,-6.510653972625732422e+00,-7.967547416687011719e+00,-7.902441978454589844e+00,-8.080848693847656250e+00,-9.627557754516601562e+00,-1.125617694854736328e+01,-1.128500366210937500e+01,-2.862617492675781250e+00,-2.562575817108154297e+00,-2.523436069488525391e+00,-2.493634700775146484e+00,-3.330598831176757812e+00,-3.073066711425781250e+00,-3.078374385833740234e+00,-3.055771350860595703e+00,-2.482650279998779297e+00,-2.407780170440673828e+00,-6.203569412231445312e+00,-6.199632167816162109e+00,-4.180943489074707031e+00,-4.680825710296630859e+00,-5.674150466918945312e+00,-8.067790985107421875e+00,-3.159120559692382812e+00,-3.166171550750732422e+00,-7.096265792846679688e+00,-4.197200298309326172e+00,-4.198740959167480469e+00,-5.626779556274414062e+00,-5.628386497497558594e+00,-5.381846427917480469e+00,-5.289380073547363281e+00,nan,-9.170318603515625000e+00,-8.969224929809570312e+00,-8.955502510070800781e+00,nan,nan,-8.197083473205566406e+00,-8.279158592224121094e+00,-8.260727882385253906e+00,-8.253589630126953125e+00,-8.186152458190917969e+00,nan,-9.233392715454101562e+00,-9.246510505676269531e+00,-8.326266288757324219e+00,-8.321230888366699219e+00,-8.173914909362792969e+00,-5.734565258026123047e+00,-5.768908977508544922e+00,-8.126194000244140625e+00,-4.718390464782714844e+00,-5.033289909362792969e+00,-5.268369674682617188e+00,-5.455979347229003906e+00,-7.278303146362304688e+00,-5.011286735534667969e+00,-6.317730903625488281e+00,-6.742129325866699219e+00,-5.235127449035644531e+00,-6.273603916168212891e+00,-5.256180286407470703e+00,-5.400495529174804688e+00,-4.942079544067382812e+00,-4.936833858489990234e+00,-3.871308803558349609e+00,-8.753111839294433594e+00,-8.824349403381347656e+00,-8.376424789428710938e+00,-8.375184059143066406e+00,-6.961844921112060547e+00,-7.955100059509277344e+00,-7.959024906158447266e+00,-8.457449913024902344e+00,-8.562747001647949219e+00,-8.618368148803710938e+00,-8.811546325683593750e+00,-8.930467605590820312e+00,-8.050086021423339844e+00,-9.561050415039062500e+00,-9.903061866760253906e+00,-9.446776390075683594e+00,-9.671974182128906250e+00,-9.581250190734863281e+00,-9.553195953369140625e+00,-9.518473625183105469e+00,-9.395539283752441406e+00,-9.063672065734863281e+00,-9.097438812255859375e+00,-8.991056442260742188e+00,-9.082084655761718750e+00,-9.315797805786132812e+00,-9.256730079650878906e+00,-8.915349006652832031e+00,-9.361564636230468750e+00,-8.971594810485839844e+00,-8.925117492675781250e+00,-8.948673248291015625e+00,-8.538702964782714844e+00,-8.920753479003906250e+00,-9.000260353088378906e+00,-9.121250152587890625e+00,-8.807826995849609375e+00,-8.576951026916503906e+00,-8.583430290222167969e+00,-9.083330154418945312e+00,-8.514722824096679688e+00,-8.926155090332031250e+00,-8.497141838073730469e+00,-8.446839332580566406e+00,-8.424745559692382812e+00,-8.347771644592285156e+00,-8.389767646789550781e+00,-8.556631088256835938e+00,-8.699804306030273438e+00,-8.645875930786132812e+00,-8.687849998474121094e+00,-8.664988517761230469e+00,-8.531680107116699219e+00,-8.536417961120605469e+00,-8.787160873413085938e+00,-8.579246520996093750e+00,-8.848030090332031250e+00,-8.776027679443359375e+00,-8.730965614318847656e+00,-8.631480216979980469e+00,-8.708771705627441406e+00,-8.683160781860351562e+00,-8.665365219116210938e+00,-8.580760955810546875e+00,-8.572856903076171875e+00,-8.578037261962890625e+00,-8.514945030212402344e+00,-8.514002799987792969e+00,-8.575639724731445312e+00,-8.562764167785644531e+00,-8.582624435424804688e+00,-8.464714050292968750e+00,-8.512674331665039062e+00,-8.447390556335449219e+00,-8.466853141784667969e+00,-8.397965431213378906e+00,-8.377347946166992188e+00,-8.414649009704589844e+00,-8.381548881530761719e+00,-8.384507179260253906e+00
-4.056700229644775391e+00,-4.050607681274414062e+00,-1.143593883514404297e+01,-3.218004703521728516e+00,-3.951021909713745117e+00,-3.474402189254760742e+00,-2.942285060882568359e+00,-3.469922542572021484e+00,-3.662232160568237305e+00,-2.541436195373535156e+00,-1.124752521514892578e+01,-1.117192077636718750e+01,-2.581545352935791016e+00,-2.617632865905761719e+00,-2.484030723571777344e+00,-2.880731582641601562e+00,-2.990589618682861328e+00,-2.063728332519531250e+00,-6.519460678100585938e+00,-2.302331924438476562e+00,-7.283297061920166016e+00,-8.295257568359375000e+00,-9.661315917968750000e+00,-9.758468627929687500e+00,-2.567061424255371094e+00,-2.533817768096923828e+00,-2.562467575073242188e+00,-2.539755821228027344e+00,-2.817502498626708984e+00,-3.037961959838867188e+00,-3.033145427703857422e+00,-3.122527122497558594e+00,-3.123416423797607422e+00,-4.076853752136230469e+00,-8.699843406677246094e+00,-6.213816165924072266e+00,-3.162905216217041016e+00,-4.205223560333251953e+00,-8.138978004455566406e+00,-5.697631835937500000e+00,-8.089313507080078125e+00,-8.087024688720703125e+00,-4.219109535217285156e+00,-4.211462020874023438e+00,-4.212664604187011719e+00,-4.211889266967773438e+00,-5.748650074005126953e+00,-5.638561725616455078e+00,-5.460225105285644531e+00,-5.364787578582763672e+00,nan,-1.011758804321289062e+01,-8.935327529907226562e+00,-9.013856887817382812e+00,-9.479158401489257812e+00,-8.346421241760253906e+00,-8.298001289367675781e+00,-8.275192260742187500e+00,-8.257599830627441406e+00,-8.221987724304199219e+00,-8.149998664855957031e+00,-9.231938362121582031e+00,-8.428290367126464844e+00,-9.255755424499511719e+00,-8.198023796081542969e+00,-8.558489799499511719e+00,-5.808017730712890625e+00,-8.365864753723144531e+00,-8.177474021911621094e+00,-5.728268623352050781e+00,-5.504938125610351562e+00,-4.759940147399902344e+00,-8.910950660705566406e+00,-5.490406990051269531e+00,-5.489966869354248047e+00,-6.333976745605468750e+00,-5.465858936309814453e+00,-5.289227485656738281e+00,-8.720155715942382812e+00,-6.254277229309082031e+00,-6.294041156768798828e+00,-5.216276168823242188e+00,nan,-9.778785705566406250e+00,-8.711334228515625000e+00,-8.795819282531738281e+00,-8.432047843933105469e+00,-8.396120071411132812e+00,-6.674647331237792969e+00,-7.951192855834960938e+00,-7.950877666473388672e+00,-7.951796531677246094e+00,-7.950919151306152344e+00,-8.858414649963378906e+00,-8.862798690795898438e+00,-8.929065704345703125e+00,-9.189426422119140625e+00,-8.186135292053222656e+00,-8.838458061218261719e+00,-9.046081542968750000e+00,-9.495409965515136719e+00,-9.772533416748046875e+00,-9.518774032592773438e+00,-9.460966110229492188e+00,-9.496377944946289062e+00,-8.876001358032226562e+00,-9.340355873107910156e+00,-9.409623146057128906e+00,-9.450393676757812500e+00,-8.858606338500976562e+00,-9.347074508666992188e+00,-9.349555015563964844e+00,-9.338960647583007812e+00,-8.728215217590332031e+00,-8.830006599426269531e+00,-8.956568717956542969e+00,-8.907585144042968750e+00,-8.544167518615722656e+00,-9.231220245361328125e+00,-8.964866638183593750e+00,-9.062940597534179688e+00,-9.115307807922363281e+00,-8.747431755065917969e+00,-9.080630302429199219e+00,-8.952543258666992188e+00,-8.614795684814453125e+00,-8.404402732849121094e+00,-8.478921890258789062e+00,-8.540121078491210938e+00,-8.481030464172363281e+00,-8.457709312438964844e+00,-8.541198730468750000e+00,-8.982762336730957031e+00,-8.805588722229003906e+00,-8.626228332519531250e+00,-8.834985733032226562e+00,-8.726208686828613281e+00,-8.806388854980468750e+00,-8.720637321472167969e+00,-8.748264312744140625e+00,-8.746137619018554688e+00,-8.821564674377441406e+00,-8.596097946166992188e+00,-8.697848320007324219e+00,-8.639545440673828125e+00,-8.671325683593750000e+00,-8.564695358276367188e+00,-8.653141975402832031e+00,-8.623685836791992188e+00,-8.599965095520019531e+00,-8.603843688964843750e+00,-8.577577590942382812e+00,-8.534837722778320312e+00,-8.549950599670410156e+00,-8.494274139404296875e+00,-8.388133049011230469e+00,-8.442516326904296875e+00,-8.342976570129394531e+00,-8.406846046447753906e+00,-8.280437469482421875e+00,-8.394590377807617188e+00,-8.377779960632324219e+00,-8.276293754577636719e+00,-8.417219161987304688e+00,-8.354482650756835938e+00
-3.468639135360717773e+00,-3.474327564239501953e+00,-3.605955600738525391e+00,-3.305130958557128906e+00,-4.726752758026123047e+00,-3.519334793090820312e+00,-3.530651569366455078e+00,-3.790219783782958984e+00,-3.883895397186279297e+00,-3.860131502151489258e+00,-1.120945739746093750e+01,-2.546200275421142578e+00,-2.396062374114990234e+00,-2.397523403167724609e+00,-2.622987270355224609e+00,-2.708922386169433594e+00,-2.888575553894042969e+00,-2.586125850677490234e+00,-8.038631439208984375e+00,-7.926756381988525391e+00,-2.290263652801513672e+00,-2.776067256927490234e+00,-1.129025173187255859e+01,-1.123941040039062500e+01,-2.553776264190673828e+00,-2.566547393798828125e+00,-2.576426029205322266e+00,-2.589930057525634766e+00,-2.898927211761474609e+00,-3.152768611907958984e+00,-3.882239341735839844e+00,-2.907663822174072266e+00,-2.914293766021728516e+00,-6.737302303314208984e+00,-5.256739616394042969e+00,-4.254061222076416016e+00,-4.236875534057617188e+00,-4.743845939636230469e+00,-5.716739654541015625e+00,-5.714311599731445312e+00,-3.232923030853271484e+00,-8.089254379272460938e+00,-8.365372657775878906e+00,-3.046960830688476562e+00,-4.080339431762695312e+00,-4.073066234588623047e+00,-4.066378116607666016e+00,-8.427918434143066406e+00,-1.038564491271972656e+01,-1.043968105316162109e+01,-1.013027095794677734e+01,-9.412624359130859375e+00,-1.033488464355468750e+01,-8.481440544128417969e+00,-8.424405097961425781e+00,-8.324515342712402344e+00,-8.285040855407714844e+00,-8.463245391845703125e+00,-8.138701438903808594e+00,-8.474416732788085938e+00,nan,-8.644639968872070312e+00,-8.578813552856445312e+00,-8.666833877563476562e+00,-8.596641540527343750e+00,-8.591100692749023438e+00,-8.306410789489746094e+00,-8.131519317626953125e+00,-5.973633766174316406e+00,-8.858007431030273438e+00,-8.678564071655273438e+00,-4.809063911437988281e+00,-8.814565658569335938e+00,-9.446805953979492188e+00,-5.495343208312988281e+00,-5.065998554229736328e+00,-5.487883090972900391e+00,-5.485755443572998047e+00,-5.370597839355468750e+00,-5.468083381652832031e+00,-7.143561840057373047e+00,-8.313052177429199219e+00,-9.657386779785156250e+00,-8.819188117980957031e+00,-8.953658103942871094e+00,-8.689137458801269531e+00,-8.631575584411621094e+00,-6.683807849884033203e+00,-7.950651645660400391e+00,-7.947653293609619141e+00,-7.806013107299804688e+00,-7.975097179412841797e+00,-7.968842029571533203e+00,-8.906907081604003906e+00,-8.918922424316406250e+00,-9.123930931091308594e+00,-9.166914939880371094e+00,-9.152844429016113281e+00,-9.382244110107421875e+00,-8.944764137268066406e+00,-9.695843696594238281e+00,-9.354341506958007812e+00,-9.122787475585937500e+00,-8.775503158569335938e+00,-8.848670959472656250e+00,-9.005251884460449219e+00,-9.341812133789062500e+00,-8.893233299255371094e+00,-8.930545806884765625e+00,-8.969664573669433594e+00,-9.281434059143066406e+00,-8.889108657836914062e+00,-9.412055969238281250e+00,-8.937442779541015625e+00,-8.931724548339843750e+00,-8.926876068115234375e+00,-8.913822174072265625e+00,-8.892358779907226562e+00,-8.544702529907226562e+00,-9.160380363464355469e+00,-9.249951362609863281e+00,-8.714036941528320312e+00,-8.665941238403320312e+00,-9.252608299255371094e+00,-8.503892898559570312e+00,-8.468176841735839844e+00,-8.480035781860351562e+00,-8.502097129821777344e+00,-8.468694686889648438e+00,-8.550359725952148438e+00,-8.484796524047851562e+00,-8.583374023437500000e+00,-8.575489997863769531e+00,-8.627502441406250000e+00,-8.744320869445800781e+00,-8.718445777893066406e+00,-8.760989189147949219e+00,-8.751459121704101562e+00,-8.823378562927246094e+00,-8.822916030883789062e+00,-8.800869941711425781e+00,-8.663847923278808594e+00,-8.644586563110351562e+00,-8.706056594848632812e+00,-8.555774688720703125e+00,-8.486139297485351562e+00,-8.548862457275390625e+00,-8.613852500915527344e+00,-8.591903686523437500e+00,-8.609179496765136719e+00,-8.487122535705566406e+00,-8.529423713684082031e+00,-8.550992965698242188e+00,-8.530338287353515625e+00,-8.526943206787109375e+00,-8.420166015625000000e+00,-8.406495094299316406e+00,-8.487503051757812500e+00,-8.437536239624023438e+00,-8.396809577941894531e+00,-8.365326881408691406e+00,-8.374197006225585938e+00,-8.341672897338867188e+00,-8.316082000732421875e+00,-8.307465553283691406e+00
-3.493409156799316406e+00,-3.283427715301513672e+00,-3.352109193801879883e+00,-3.701625347137451172e+00,-3.829059600830078125e+00,-3.540977954864501953e+00,-3.502165317535400391e+00,-4.164001464843750000e+00,-4.177152156829833984e+00,-1.122194671630859375e+01,-1.117482757568359375e+01,-2.410766124725341797e+00,-2.493194103240966797e+00,-2.448789119720458984e+00,-2.759578227996826172e+00,-2.830119609832763672e+00,-1.142284202575683594e+01,-3.077584743499755859e+00,-1.134272289276123047e+01,-1.132194232940673828e+01,-1.129861545562744141e+01,-2.770044326782226562e+00,-3.226346969604492188e+00,-2.623100757598876953e+00,-2.603222370147705078e+00,-2.590171813964843750e+00,-2.596766948699951172e+00,-3.398180007934570312e+00,-3.894939422607421875e+00,-3.204290866851806641e+00,-4.049565792083740234e+00,-2.847878456115722656e+00,-4.162003517150878906e+00,-6.762284278869628906e+00,-6.267402648925781250e+00,-8.188532829284667969e+00,-4.272294044494628906e+00,-4.774946689605712891e+00,-4.295178413391113281e+00,-8.639965057373046875e+00,-3.237662315368652344e+00,-3.289040565490722656e+00,-3.158691406250000000e+00,-4.251588821411132812e+00,-4.080041885375976562e+00,-4.032653808593750000e+00,-4.054088592529296875e+00,nan,-8.577198028564453125e+00,-1.044107818603515625e+01,-1.029899215698242188e+01,-8.804200172424316406e+00,-1.030743217468261719e+01,-8.820730209350585938e+00,-9.143302917480468750e+00,-8.291116714477539062e+00,-8.754859924316406250e+00,-8.511987686157226562e+00,-1.077605628967285156e+01,-8.463794708251953125e+00,-8.569162368774414062e+00,-8.599403381347656250e+00,-8.605772972106933594e+00,-8.599741935729980469e+00,-8.194100379943847656e+00,-8.142369270324707031e+00,-8.133987426757812500e+00,-8.137840270996093750e+00,-9.251982688903808594e+00,-5.559222221374511719e+00,-8.756041526794433594e+00,-5.829210758209228516e+00,-9.654563903808593750e+00,-9.538085937500000000e+00,-5.087025165557861328e+00,-5.084278106689453125e+00,-6.158185005187988281e+00,-5.504048347473144531e+00,-5.494451045989990234e+00,-5.485896587371826172e+00,-4.108823776245117188e+00,-7.179824352264404297e+00,-1.012040138244628906e+01,-6.657209396362304688e+00,-3.955926895141601562e+00,-9.303794860839843750e+00,-8.554356575012207031e+00,-7.731081962585449219e+00,-8.968074798583984375e+00,-7.536282539367675781e+00,-7.518333435058593750e+00,-8.918249130249023438e+00,-8.904917716979980469e+00,-9.060320854187011719e+00,-9.119228363037109375e+00,-9.138660430908203125e+00,-9.174465179443359375e+00,-9.508800506591796875e+00,-9.821309089660644531e+00,-9.232905387878417969e+00,-9.402688026428222656e+00,-9.610164642333984375e+00,-9.659942626953125000e+00,-9.390386581420898438e+00,-8.881445884704589844e+00,-8.843930244445800781e+00,-8.899876594543457031e+00,-8.984005928039550781e+00,-8.957659721374511719e+00,-9.002796173095703125e+00,-8.359256744384765625e+00,-9.592214584350585938e+00,-9.584933280944824219e+00,-9.469463348388671875e+00,-9.164753913879394531e+00,-9.170497894287109375e+00,-8.916938781738281250e+00,-8.924792289733886719e+00,-8.916368484497070312e+00,-8.921859741210937500e+00,-8.945049285888671875e+00,-8.863121986389160156e+00,-8.726128578186035156e+00,-8.761096000671386719e+00,-8.594952583312988281e+00,-8.607177734375000000e+00,-8.500962257385253906e+00,-8.471081733703613281e+00,-8.515424728393554688e+00,-8.503335952758789062e+00,-9.002332687377929688e+00,-8.590665817260742188e+00,-8.561231613159179688e+00,-8.839561462402343750e+00,-8.774318695068359375e+00,-8.695661544799804688e+00,-8.811515808105468750e+00,nan,-8.818153381347656250e+00,-8.676657676696777344e+00,-8.680484771728515625e+00,-8.783537864685058594e+00,-8.636346817016601562e+00,-8.664868354797363281e+00,-8.659933090209960938e+00,-8.664079666137695312e+00,-8.553587913513183594e+00,-8.549502372741699219e+00,-8.489890098571777344e+00,-8.602160453796386719e+00,-8.513000488281250000e+00,-8.460272789001464844e+00,-8.512849807739257812e+00,-8.481257438659667969e+00,-8.475401878356933594e+00,-8.458655357360839844e+00,-8.412615776062011719e+00,-8.445060729980468750e+00,-8.272518157958984375e+00,-8.346396446228027344e+00,-8.329360961914062500e+00,-8.334285736083984375e+00,-8.305887222290039062e+00,-8.318978309631347656e+00,-8.244850158691406250e+00
-9.831683158874511719e+00,-3.833376407623291016e+00,-4.203175067901611328e+00,-3.884531974792480469e+00,-4.184691429138183594e+00,-4.196082115173339844e+00,-4.184861183166503906e+00,-2.402541637420654297e+00,-2.610622882843017578e+00,-2.745498180389404297e+00,-3.029797077178955078e+00,-2.440420150756835938e+00,-2.503495693206787109e+00,-2.492212295532226562e+00,-2.517598628997802734e+00,-1.141156959533691406e+01,-3.105925083160400391e+00,-3.107707500457763672e+00,-3.695300579071044922e+00,-2.585394382476806641e+00,-1.125858306884765625e+01,-3.715312480926513672e+00,-3.731747150421142578e+00,-2.695289611816406250e+00,-2.632936000823974609e+00,-3.229109764099121094e+00,-3.231616497039794922e+00,-3.839972972869873047e+00,-4.301141738891601562e+00,-3.778363943099975586e+00,-3.777510404586791992e+00,-4.212083816528320312e+00,-2.733051776885986328e+00,-6.769229888916015625e+00,-6.761205673217773438e+00,-3.806730031967163086e+00,-3.807846069335937500e+00,-4.811327934265136719e+00,-4.318934917449951172e+00,-5.763865470886230469e+00,-3.053590297698974609e+00,-3.312201023101806641e+00,-3.105191707611083984e+00,-3.043169498443603516e+00,-4.059371948242187500e+00,-3.854779720306396484e+00,-8.456974029541015625e+00,-8.425850868225097656e+00,-8.552405357360839844e+00,-1.045097351074218750e+01,nan,-8.862569808959960938e+00,-9.603524208068847656e+00,-9.332388877868652344e+00,-8.560516357421875000e+00,-8.688848495483398438e+00,-8.611881256103515625e+00,-8.679885864257812500e+00,-9.005348205566406250e+00,-8.994309425354003906e+00,-8.644949913024902344e+00,-8.621492385864257812e+00,-8.602941513061523438e+00,-8.468568801879882812e+00,-8.160690307617187500e+00,-8.135343551635742188e+00,-8.134412765502929688e+00,-8.535829544067382812e+00,-8.515182495117187500e+00,-8.505441665649414062e+00,-8.506776809692382812e+00,-9.042351722717285156e+00,-9.377502441406250000e+00,-9.196285247802734375e+00,-5.696217060089111328e+00,-5.706505775451660156e+00,-5.393435478210449219e+00,-5.522271156311035156e+00,-5.519902706146240234e+00,-5.644262790679931641e+00,-5.631871700286865234e+00,-1.017949295043945312e+01,-3.304834365844726562e+00,-9.891759872436523438e+00,-4.037606239318847656e+00,-9.449454307556152344e+00,-7.778303146362304688e+00,-9.018086433410644531e+00,-7.421813011169433594e+00,-7.517589569091796875e+00,-7.514910221099853516e+00,-8.914129257202148438e+00,-9.043347358703613281e+00,-9.095370292663574219e+00,-9.229784011840820312e+00,-9.208878517150878906e+00,-9.306695938110351562e+00,-9.760473251342773438e+00,-9.548336982727050781e+00,-9.717053413391113281e+00,-9.806383132934570312e+00,-9.656831741333007812e+00,-8.997107505798339844e+00,-9.291227340698242188e+00,-8.545301437377929688e+00,-9.251415252685546875e+00,-8.492847442626953125e+00,-8.859292030334472656e+00,-9.080848693847656250e+00,-8.867848396301269531e+00,-8.490614891052246094e+00,-8.849003791809082031e+00,nan,-9.253534317016601562e+00,-9.378537178039550781e+00,-9.165144920349121094e+00,-9.245036125183105469e+00,nan,nan,-8.892370223999023438e+00,-8.873573303222656250e+00,-8.929049491882324219e+00,-8.786241531372070312e+00,-8.499281883239746094e+00,-8.605257987976074219e+00,-8.514459609985351562e+00,-8.500658035278320312e+00,-8.502532958984375000e+00,-8.756679534912109375e+00,-8.572561264038085938e+00,-8.915961265563964844e+00,-8.692430496215820312e+00,-8.615291595458984375e+00,-8.796280860900878906e+00,-8.605944633483886719e+00,-8.680064201354980469e+00,-8.682177543640136719e+00,-8.698619842529296875e+00,-8.683558464050292969e+00,-8.670562744140625000e+00,-8.674627304077148438e+00,-8.764595031738281250e+00,-8.768712997436523438e+00,-8.501129150390625000e+00,-8.635787010192871094e+00,-8.648288726806640625e+00,-8.531484603881835938e+00,-8.517793655395507812e+00,-8.578635215759277344e+00,-8.598670005798339844e+00,-8.548471450805664062e+00,-8.495256423950195312e+00,-8.409422874450683594e+00,-8.401468276977539062e+00,-8.396883010864257812e+00,-8.397052764892578125e+00,-8.350912094116210938e+00,-8.422325134277343750e+00,-8.401457786560058594e+00,-8.358107566833496094e+00,-8.337604522705078125e+00,-8.323755264282226562e+00,-8.286753654479980469e+00,-8.262005805969238281e+00,-8.255450248718261719e+00
-3.842896938323974609e+00,-9.635536193847656250e+00,-4.206700325012207031e+00,-4.216927528381347656e+00,-4.193717956542968750e+00,-2.762453079223632812e+00,-3.087185859680175781e+00,-3.052648067474365234e+00,-2.978763580322265625e+00,-2.634630680084228516e+00,-2.694254398345947266e+00,-2.730640411376953125e+00,-2.805128574371337891e+00,-1.145728874206542969e+01,-2.527000904083251953e+00,-3.142428874969482422e+00,-1.141154861450195312e+01,-2.781049728393554688e+00,-3.615417480468750000e+00,-2.617837429046630859e+00,-3.766106128692626953e+00,-3.771108865737915039e+00,-2.664159774780273438e+00,-2.680405139923095703e+00,-2.671328544616699219e+00,-3.248282909393310547e+00,-3.248469829559326172e+00,-3.800370454788208008e+00,-3.802810907363891602e+00,-3.535811424255371094e+00,-3.812170505523681641e+00,-2.751298427581787109e+00,-6.567619323730468750e+00,-6.538326740264892578e+00,-3.684968471527099609e+00,-6.293700218200683594e+00,-3.339993953704833984e+00,-4.833545684814453125e+00,-4.343729019165039062e+00,-4.106832504272460938e+00,-3.279232025146484375e+00,-3.077895164489746094e+00,-3.093423366546630859e+00,-3.041370391845703125e+00,-2.914739131927490234e+00,-3.866200685501098633e+00,nan,nan,-9.865545272827148438e+00,-8.612146377563476562e+00,-9.428706169128417969e+00,-9.123604774475097656e+00,-8.731831550598144531e+00,-8.715713500976562500e+00,-8.670557022094726562e+00,-8.718304634094238281e+00,-8.674407958984375000e+00,-8.665595054626464844e+00,-8.471401214599609375e+00,-8.528033256530761719e+00,-9.473050117492675781e+00,-8.603924751281738281e+00,-8.589594841003417969e+00,-8.582219123840332031e+00,-8.200840950012207031e+00,-8.548282623291015625e+00,-8.536052703857421875e+00,-8.523852348327636719e+00,-8.510941505432128906e+00,-8.492289543151855469e+00,-8.480266571044921875e+00,-8.535988807678222656e+00,-9.208205223083496094e+00,-6.948039054870605469e+00,-5.722096920013427734e+00,-8.521778106689453125e+00,-5.487721443176269531e+00,-5.541426658630371094e+00,-5.537915229797363281e+00,-5.521841526031494141e+00,-5.920696258544921875e+00,-6.492958545684814453e+00,-3.873867511749267578e+00,-5.477223873138427734e+00,-3.897319316864013672e+00,-3.813943386077880859e+00,-8.960086822509765625e+00,-9.070415496826171875e+00,-9.107604026794433594e+00,-9.096675872802734375e+00,-7.502933502197265625e+00,-7.516872882843017578e+00,-9.208001136779785156e+00,-9.233656883239746094e+00,-9.392862319946289062e+00,-9.378373146057128906e+00,-9.586488723754882812e+00,-9.780378341674804688e+00,-9.574359893798828125e+00,-9.184937477111816406e+00,-9.784916877746582031e+00,-9.790138244628906250e+00,-9.788085937500000000e+00,-8.595319747924804688e+00,-8.803539276123046875e+00,-9.244298934936523438e+00,-8.732496261596679688e+00,-8.994771957397460938e+00,-8.621100425720214844e+00,-8.213715553283691406e+00,-8.982037544250488281e+00,-9.037407875061035156e+00,-9.336124420166015625e+00,nan,nan,-8.974362373352050781e+00,-8.915748596191406250e+00,-8.940623283386230469e+00,-9.270164489746093750e+00,-8.827647209167480469e+00,-8.874585151672363281e+00,-8.826825141906738281e+00,-8.430861473083496094e+00,-8.708458900451660156e+00,-8.475800514221191406e+00,-8.478177070617675781e+00,-8.488688468933105469e+00,-8.498610496520996094e+00,-8.773655891418457031e+00,-8.499865531921386719e+00,-8.784211158752441406e+00,-8.623682022094726562e+00,-8.709156990051269531e+00,-8.518666267395019531e+00,-8.587471008300781250e+00,-8.654314994812011719e+00,-8.294587135314941406e+00,-8.762755393981933594e+00,-8.751497268676757812e+00,-8.696738243103027344e+00,-8.700952529907226562e+00,-8.710270881652832031e+00,-8.728765487670898438e+00,-8.519794464111328125e+00,-8.530905723571777344e+00,-8.497648239135742188e+00,-8.497577667236328125e+00,-8.545204162597656250e+00,-8.553629875183105469e+00,-8.567415237426757812e+00,-8.545478820800781250e+00,-8.470559120178222656e+00,-8.492316246032714844e+00,-8.438462257385253906e+00,-8.436650276184082031e+00,-8.370471954345703125e+00,-8.408444404602050781e+00,-8.441212654113769531e+00,-8.372695922851562500e+00,-8.349382400512695312e+00,-8.312487602233886719e+00,-8.308471679687500000e+00,-8.322908401489257812e+00,-8.271825790405273438e+00,-8.293557167053222656e+00
-4.232349872589111328e+00,-9.531240463256835938e+00,-4.234660148620605469e+00,-4.563759803771972656e+00,-3.849941015243530273e+00,-3.831442356109619141e+00,-3.183544158935546875e+00,-3.083967208862304688e+00,-3.037472248077392578e+00,-2.743530750274658203e+00,-2.755817413330078125e+00,-3.130178928375244141e+00,-3.041184425354003906e+00,-5.987367630004882812e+00,nan,-3.107107162475585938e+00,-1.137459373474121094e+01,-2.801861763000488281e+00,-2.693564891815185547e+00,-2.678874015808105469e+00,-3.784665584564208984e+00,-3.786969900131225586e+00,-2.708912849426269531e+00,-2.717574596405029297e+00,-2.764986038208007812e+00,-3.284038543701171875e+00,-3.281862258911132812e+00,-3.217212677001953125e+00,-3.854926586151123047e+00,-3.859338998794555664e+00,-3.652092695236206055e+00,nan,nan,-6.309481143951416016e+00,-6.311881065368652344e+00,-6.306016921997070312e+00,-4.310198783874511719e+00,-4.872310638427734375e+00,-4.869776725769042969e+00,nan,-3.311959743499755859e+00,-3.136949539184570312e+00,-2.955201625823974609e+00,-2.945421218872070312e+00,-2.942296981811523438e+00,-8.496763229370117188e+00,-8.629007339477539062e+00,-8.626039505004882812e+00,-9.613284111022949219e+00,-8.617677688598632812e+00,-9.421095848083496094e+00,-9.763589859008789062e+00,-8.925228118896484375e+00,-8.375712394714355469e+00,-9.562941551208496094e+00,-8.660064697265625000e+00,-8.669592857360839844e+00,-8.652296066284179688e+00,-9.205073356628417969e+00,-9.414450645446777344e+00,-8.617580413818359375e+00,-8.595196723937988281e+00,-8.575955390930175781e+00,-8.711109161376953125e+00,-8.487630844116210938e+00,-9.449432373046875000e+00,-8.522113800048828125e+00,-8.504193305969238281e+00,-8.485255241394042969e+00,-8.471521377563476562e+00,-8.472859382629394531e+00,-9.225760459899902344e+00,-9.087314605712890625e+00,-9.030338287353515625e+00,-7.714493274688720703e+00,-6.100424289703369141e+00,-7.099349021911621094e+00,-5.435438156127929688e+00,-7.708063125610351562e+00,-7.216103076934814453e+00,-6.881357669830322266e+00,-6.682911396026611328e+00,-4.551033020019531250e+00,-5.056881427764892578e+00,-4.716849327087402344e+00,-5.001266479492187500e+00,-4.669536113739013672e+00,-9.168165206909179688e+00,-9.237829208374023438e+00,-9.208437919616699219e+00,-9.385285377502441406e+00,-9.194891929626464844e+00,-9.094482421875000000e+00,-9.195111274719238281e+00,-9.373298645019531250e+00,-9.497047424316406250e+00,-9.699816703796386719e+00,-9.700854301452636719e+00,-9.646367073059082031e+00,-9.739532470703125000e+00,-9.104020118713378906e+00,-8.669082641601562500e+00,-8.902966499328613281e+00,-8.783660888671875000e+00,-8.672516822814941406e+00,-9.042986869812011719e+00,-8.341390609741210938e+00,-8.908579826354980469e+00,-8.949887275695800781e+00,-8.968611717224121094e+00,-8.910355567932128906e+00,nan,nan,-9.320869445800781250e+00,-9.315956115722656250e+00,-8.949632644653320312e+00,-9.175319671630859375e+00,nan,nan,-8.676263809204101562e+00,-8.931780815124511719e+00,-8.484228134155273438e+00,-8.903356552124023438e+00,-9.062182426452636719e+00,-8.477117538452148438e+00,-8.519186973571777344e+00,-8.889029502868652344e+00,-8.647446632385253906e+00,-8.937191009521484375e+00,-8.567746162414550781e+00,-8.648687362670898438e+00,-8.888024330139160156e+00,-8.706692695617675781e+00,-8.527935981750488281e+00,-8.574274063110351562e+00,-8.598062515258789062e+00,-8.333539962768554688e+00,-8.630398750305175781e+00,-8.766291618347167969e+00,-8.752782821655273438e+00,-8.690681457519531250e+00,-8.703354835510253906e+00,-8.566264152526855469e+00,-8.676332473754882812e+00,-8.509330749511718750e+00,-8.502952575683593750e+00,-8.616375923156738281e+00,-8.455231666564941406e+00,-8.401619911193847656e+00,-8.529015541076660156e+00,-8.521571159362792969e+00,-8.490122795104980469e+00,-8.376853942871093750e+00,-8.442470550537109375e+00,-8.463924407958984375e+00,-8.416707038879394531e+00,-8.386669158935546875e+00,-8.317527770996093750e+00,-8.368241310119628906e+00,-8.340681076049804688e+00,-8.247284889221191406e+00,-8.284006118774414062e+00,-8.199913978576660156e+00,-8.197504043579101562e+00,-8.224648475646972656e+00
-4.254215240478515625e+00,-4.255983352661132812e+00,-4.343387603759765625e+00,-9.589639663696289062e+00,-3.852888822555541992e+00,-3.789698839187622070e+00,nan,-3.125416278839111328e+00,-2.895265102386474609e+00,-2.767418861389160156e+00,-3.161275386810302734e+00,-3.178165912628173828e+00,-2.465172290802001953e+00,-6.110642910003662109e+00,-6.057964324951171875e+00,-1.138116550445556641e+01,-1.151080131530761719e+01,-1.148123455047607422e+01,-2.706527233123779297e+00,-2.719014644622802734e+00,-3.448582172393798828e+00,-2.434433460235595703e+00,-2.431654930114746094e+00,-8.532081604003906250e+00,-8.334351539611816406e+00,-3.242051601409912109e+00,nan,nan,-3.866528749465942383e+00,-3.875236988067626953e+00,nan,-1.141464996337890625e+01,nan,-4.159085273742675781e+00,-6.319563865661621094e+00,-3.933399915695190430e+00,-4.901803016662597656e+00,-4.900629997253417969e+00,-4.899170875549316406e+00,-4.139168262481689453e+00,-3.196769237518310547e+00,-3.187038898468017578e+00,-2.969947814941406250e+00,-2.952698230743408203e+00,-2.677266597747802734e+00,-8.447596549987792969e+00,-8.442582130432128906e+00,-8.654922485351562500e+00,-8.645901679992675781e+00,-9.381711959838867188e+00,-8.857018470764160156e+00,-8.853520393371582031e+00,-8.598319053649902344e+00,-8.712488174438476562e+00,-8.682613372802734375e+00,-8.676750183105468750e+00,-8.694005012512207031e+00,-9.354264259338378906e+00,-9.286585807800292969e+00,-8.706183433532714844e+00,-8.590916633605957031e+00,-9.482718467712402344e+00,-8.958813667297363281e+00,-8.906438827514648438e+00,-8.549675941467285156e+00,-8.788199424743652344e+00,-8.527753829956054688e+00,-8.495710372924804688e+00,-8.476479530334472656e+00,-8.476506233215332031e+00,-8.486711502075195312e+00,-9.330328941345214844e+00,-9.111922264099121094e+00,-8.151325225830078125e+00,-7.890332221984863281e+00,-8.008285522460937500e+00,-5.500938415527343750e+00,-7.011114120483398438e+00,-6.829140663146972656e+00,-6.098790168762207031e+00,-5.386599063873291016e+00,-4.876508712768554688e+00,-5.276164054870605469e+00,-5.466718196868896484e+00,-4.695222854614257812e+00,-9.611490249633789062e+00,-9.645332336425781250e+00,-9.429693222045898438e+00,-9.525037765502929688e+00,-9.320796012878417969e+00,-9.492589950561523438e+00,-9.218886375427246094e+00,-9.599863052368164062e+00,-9.734512329101562500e+00,nan,-8.816219329833984375e+00,-8.740341186523437500e+00,-8.549360275268554688e+00,-9.444252014160156250e+00,-9.119689941406250000e+00,-8.930919647216796875e+00,-8.705728530883789062e+00,-8.860652923583984375e+00,-8.793323516845703125e+00,-8.791447639465332031e+00,-9.267180442810058594e+00,-9.045925140380859375e+00,-8.821684837341308594e+00,-8.097240447998046875e+00,-9.380473136901855469e+00,-8.894376754760742188e+00,-9.196927070617675781e+00,-9.351313591003417969e+00,-9.273712158203125000e+00,-8.935449600219726562e+00,-8.951249122619628906e+00,-8.908614158630371094e+00,-8.936274528503417969e+00,-8.507929801940917969e+00,-8.789935111999511719e+00,-8.262559890747070312e+00,-8.848635673522949219e+00,-8.500641822814941406e+00,-9.260277748107910156e+00,-8.490708351135253906e+00,-8.612143516540527344e+00,-8.574869155883789062e+00,nan,nan,-8.864503860473632812e+00,-8.673843383789062500e+00,-8.623781204223632812e+00,-8.649353027343750000e+00,-8.592631340026855469e+00,-8.571097373962402344e+00,-8.707143783569335938e+00,-8.656991004943847656e+00,-8.648058891296386719e+00,-8.641209602355957031e+00,-8.625871658325195312e+00,-8.703166007995605469e+00,-8.680867195129394531e+00,-8.694020271301269531e+00,-8.517061233520507812e+00,-8.511137962341308594e+00,-8.614053726196289062e+00,-8.570198059082031250e+00,-8.488557815551757812e+00,-8.606695175170898438e+00,-8.518696784973144531e+00,-8.495903015136718750e+00,-8.483087539672851562e+00,-8.558647155761718750e+00,-8.312520980834960938e+00,-8.459682464599609375e+00,-8.492095947265625000e+00,-8.430157661437988281e+00,-8.355171203613281250e+00,-8.279431343078613281e+00,-8.316802024841308594e+00,-8.221901893615722656e+00,-8.196807861328125000e+00,-8.197909355163574219e+00,-8.131521224975585938e+00,-8.228607177734375000e+00
-9.689598083496093750e+00,-4.299450874328613281e+00,-4.704734802246093750e+00,-9.418304443359375000e+00,-1.178689956665039062e+01,-9.317459106445312500e+00,nan,-3.175540924072265625e+00,-3.177145004272460938e+00,-2.918052673339843750e+00,-3.125714302062988281e+00,-3.162734508514404297e+00,-5.590229988098144531e+00,-5.319331169128417969e+00,-7.522468090057373047e+00,-1.140756225585937500e+01,-2.370122432708740234e+00,-5.682489395141601562e+00,-2.726424217224121094e+00,-2.676953315734863281e+00,-2.748171329498291016e+00,-2.395547389984130859e+00,-2.425248622894287109e+00,-2.467819690704345703e+00,-2.299687385559082031e+00,nan,-9.105945587158203125e+00,-1.151703453063964844e+01,nan,nan,nan,-9.997850418090820312e+00,-4.214962005615234375e+00,-4.181808471679687500e+00,-3.989372730255126953e+00,-3.965874195098876953e+00,-4.710108757019042969e+00,-4.919527053833007812e+00,-4.062361717224121094e+00,nan,-3.139458656311035156e+00,-3.059220314025878906e+00,-3.047669887542724609e+00,-2.694689273834228516e+00,-2.639804363250732422e+00,-7.507902622222900391e+00,-8.404145240783691406e+00,-8.451546669006347656e+00,-8.490157127380371094e+00,-9.403994560241699219e+00,-8.743262290954589844e+00,-8.747522354125976562e+00,-8.348767280578613281e+00,-8.595219612121582031e+00,-8.777886390686035156e+00,-8.648922920227050781e+00,-8.667367935180664062e+00,-8.618385314941406250e+00,-8.633456230163574219e+00,-8.605551719665527344e+00,-8.588204383850097656e+00,-9.231512069702148438e+00,-9.654854774475097656e+00,-9.318443298339843750e+00,-8.867401123046875000e+00,-8.838652610778808594e+00,-8.470824241638183594e+00,-8.487236022949218750e+00,-8.529317855834960938e+00,-8.990115165710449219e+00,-9.001107215881347656e+00,-7.840080261230468750e+00,-7.647014141082763672e+00,-7.919520378112792969e+00,-8.172618865966796875e+00,-7.166532039642333984e+00,-7.690683364868164062e+00,-5.405671596527099609e+00,-5.480086326599121094e+00,-5.174562454223632812e+00,-4.988216876983642578e+00,-5.557766914367675781e+00,nan,-8.548990249633789062e+00,-9.510924339294433594e+00,-9.696682929992675781e+00,-9.607354164123535156e+00,-9.364201545715332031e+00,-9.458858489990234375e+00,-9.607856750488281250e+00,-9.476417541503906250e+00,-9.569295883178710938e+00,-9.623124122619628906e+00,-9.575226783752441406e+00,-8.613448143005371094e+00,-8.234980583190917969e+00,-8.467889785766601562e+00,-8.684637069702148438e+00,-8.565553665161132812e+00,-8.881381988525390625e+00,-8.790951728820800781e+00,-8.806065559387207031e+00,-8.864423751831054688e+00,-8.607313156127929688e+00,-9.097300529479980469e+00,-8.646663665771484375e+00,-9.127870559692382812e+00,-8.989250183105468750e+00,-9.068662643432617188e+00,-9.124897956848144531e+00,-8.452607154846191406e+00,-9.293375968933105469e+00,nan,-9.325217247009277344e+00,nan,-9.211380004882812500e+00,-8.968735694885253906e+00,-8.965870857238769531e+00,-8.290151596069335938e+00,-8.413498878479003906e+00,-8.440156936645507812e+00,-8.556468963623046875e+00,-8.295338630676269531e+00,-8.764090538024902344e+00,-8.524390220642089844e+00,-8.665571212768554688e+00,-8.705281257629394531e+00,-9.115809440612792969e+00,-8.996631622314453125e+00,-8.817229270935058594e+00,-8.621650695800781250e+00,-8.639118194580078125e+00,-8.604014396667480469e+00,-8.623987197875976562e+00,-8.596826553344726562e+00,-8.609808921813964844e+00,-8.630810737609863281e+00,-8.606268882751464844e+00,-8.615652084350585938e+00,-8.580540657043457031e+00,-8.628516197204589844e+00,-8.587471961975097656e+00,-8.536071777343750000e+00,-8.664363861083984375e+00,-8.839864730834960938e+00,-8.640605926513671875e+00,-8.446907997131347656e+00,-8.446333885192871094e+00,-8.406914710998535156e+00,-8.533025741577148438e+00,-8.466604232788085938e+00,-8.364164352416992188e+00,-8.396143913269042969e+00,-8.417388916015625000e+00,-8.429157257080078125e+00,-8.264656066894531250e+00,-8.270462036132812500e+00,-8.302227020263671875e+00,-8.328013420104980469e+00,-8.199192047119140625e+00,-8.235737800598144531e+00,-8.170306205749511719e+00,-8.190876007080078125e+00,-8.133457183837890625e+00,-8.191394805908203125e+00
-4.326990604400634766e+00,-4.317659378051757812e+00,-9.465299606323242188e+00,-9.720203399658203125e+00,-9.394064903259277344e+00,-9.289373397827148438e+00,-3.392955303192138672e+00,-3.166621208190917969e+00,-3.206885814666748047e+00,-3.185591220855712891e+00,-3.140228748321533203e+00,-5.246500015258789062e+00,-5.538106918334960938e+00,-5.375733375549316406e+00,-5.567455291748046875e+00,-1.127182006835937500e+01,-1.145667076110839844e+01,-2.397685050964355469e+00,-2.498163700103759766e+00,-2.486716747283935547e+00,-2.731929302215576172e+00,-2.762510299682617188e+00,-2.835888385772705078e+00,-2.389400005340576172e+00,-2.343615531921386719e+00,-2.336237907409667969e+00,-9.181703567504882812e+00,nan,nan,nan,nan,-1.000469112396240234e+01,-4.185711860656738281e+00,-4.001563072204589844e+00,-4.006735801696777344e+00,-4.003078460693359375e+00,-4.680146217346191406e+00,-4.721270561218261719e+00,-3.636885643005371094e+00,nan,-3.063358783721923828e+00,-3.064838409423828125e+00,-1.068784523010253906e+01,nan,-8.417602539062500000e+00,-7.548130512237548828e+00,-7.524716854095458984e+00,-8.736015319824218750e+00,-7.516625404357910156e+00,-8.720756530761718750e+00,-8.778280258178710938e+00,-8.292214393615722656e+00,-7.920536518096923828e+00,-9.163232803344726562e+00,-8.972446441650390625e+00,-8.645017623901367188e+00,-8.622499465942382812e+00,-8.202931404113769531e+00,-8.165752410888671875e+00,-8.609647750854492188e+00,-8.165707588195800781e+00,-8.554677009582519531e+00,-9.465021133422851562e+00,-9.346660614013671875e+00,-9.441424369812011719e+00,-8.982295989990234375e+00,-5.288771629333496094e+00,-9.447841644287109375e+00,-8.949856758117675781e+00,-9.066934585571289062e+00,-8.814821243286132812e+00,-8.859287261962890625e+00,-7.576481342315673828e+00,-7.466727733612060547e+00,-8.058592796325683594e+00,-7.297929763793945312e+00,-7.884452819824218750e+00,-6.277412414550781250e+00,-4.980385303497314453e+00,-5.234396934509277344e+00,-8.587932586669921875e+00,-8.825962066650390625e+00,-8.396170616149902344e+00,-8.459170341491699219e+00,-9.620471954345703125e+00,-9.592417716979980469e+00,nan,nan,-9.615398406982421875e+00,nan,nan,nan,-9.537742614746093750e+00,-7.976195812225341797e+00,-8.287672996520996094e+00,-8.718735694885253906e+00,-8.113240242004394531e+00,-8.189076423645019531e+00,-8.160340309143066406e+00,-8.656307220458984375e+00,-8.564796447753906250e+00,-8.606389999389648438e+00,-8.798609733581542969e+00,-9.014028549194335938e+00,-9.233788490295410156e+00,-9.205551147460937500e+00,-8.215499877929687500e+00,-7.710813999176025391e+00,-9.023663520812988281e+00,-9.098691940307617188e+00,-8.412176132202148438e+00,-9.280025482177734375e+00,-9.270307540893554688e+00,-8.950428962707519531e+00,-8.958248138427734375e+00,-8.960760116577148438e+00,-8.987121582031250000e+00,-8.778896331787109375e+00,-8.876954078674316406e+00,-8.461362838745117188e+00,-8.641838073730468750e+00,-8.914057731628417969e+00,-8.705836296081542969e+00,-8.454283714294433594e+00,-8.415814399719238281e+00,-8.614727020263671875e+00,nan,-9.012557029724121094e+00,-8.936081886291503906e+00,-8.646294593811035156e+00,-8.648646354675292969e+00,-8.639755249023437500e+00,-8.612903594970703125e+00,-8.586152076721191406e+00,-8.603301048278808594e+00,-8.612436294555664062e+00,-8.654427528381347656e+00,-8.704535484313964844e+00,-8.610200881958007812e+00,-8.569242477416992188e+00,-8.653102874755859375e+00,-8.617053031921386719e+00,-8.549738883972167969e+00,-8.600422859191894531e+00,-8.532545089721679688e+00,-8.504835128784179688e+00,-8.455731391906738281e+00,-8.403977394104003906e+00,-8.457489013671875000e+00,-8.470938682556152344e+00,-8.441987037658691406e+00,-8.462813377380371094e+00,-8.319362640380859375e+00,-8.324301719665527344e+00,-8.331833839416503906e+00,-8.377718925476074219e+00,-8.241601943969726562e+00,-8.276136398315429688e+00,-8.278563499450683594e+00,-8.225166320800781250e+00,-8.192604064941406250e+00,-8.220505714416503906e+00,-8.101922035217285156e+00,-8.058379173278808594e+00,-8.008317947387695312e+00
-4.057418823242187500e+00,-4.199711799621582031e+00,-9.675922393798828125e+00,-1.040064239501953125e+01,-1.181804656982421875e+01,-3.341740131378173828e+00,-3.317873001098632812e+00,-3.256061553955078125e+00,-3.274454116821289062e+00,-3.283641338348388672e+00,-5.504115104675292969e+00,-5.370232582092285156e+00,-5.364888191223144531e+00,-5.445800304412841797e+00,-5.594173431396484375e+00,-1.138958168029785156e+01,-1.137010002136230469e+01,-8.992040634155273438e+00,-1.035040664672851562e+01,-1.150034904479980469e+01,-2.759949207305908203e+00,-2.866701602935791016e+00,-2.897598743438720703e+00,-2.910210609436035156e+00,-2.408039093017578125e+00,-7.275077342987060547e+00,-8.764018058776855469e+00,-7.741417884826660156e+00,-7.737728118896484375e+00,-1.138180255889892578e+01,-9.982948303222656250e+00,-1.005075454711914062e+01,-7.732478141784667969e+00,-4.034824848175048828e+00,-4.034689903259277344e+00,-4.036797046661376953e+00,-7.675635337829589844e+00,-4.688605308532714844e+00,-9.160534858703613281e+00,nan,nan,-3.204736709594726562e+00,nan,-7.534725666046142578e+00,-7.619698524475097656e+00,-7.565890789031982422e+00,-7.545740127563476562e+00,-7.753978252410888672e+00,-7.520854473114013672e+00,-8.119049072265625000e+00,-8.260584831237792969e+00,-8.711053848266601562e+00,-8.693762779235839844e+00,-8.963171958923339844e+00,-8.194384574890136719e+00,-8.574976921081542969e+00,-8.193213462829589844e+00,-8.174611091613769531e+00,-8.232243537902832031e+00,-8.599013328552246094e+00,-8.560777664184570312e+00,-8.520200729370117188e+00,-9.343631744384765625e+00,-9.188513755798339844e+00,-9.378299713134765625e+00,-9.521749496459960938e+00,-9.655787467956542969e+00,-7.717354774475097656e+00,-8.944278717041015625e+00,-8.788736343383789062e+00,-8.969120025634765625e+00,-6.254495143890380859e+00,-7.423045635223388672e+00,-7.494743347167968750e+00,-6.142084121704101562e+00,-7.190357208251953125e+00,-5.168699264526367188e+00,-8.293807029724121094e+00,-8.369876861572265625e+00,-8.201510429382324219e+00,-8.506165504455566406e+00,-8.491586685180664062e+00,-8.473669052124023438e+00,-8.406559944152832031e+00,-9.514966011047363281e+00,nan,nan,nan,nan,nan,nan,-8.226860046386718750e+00,-8.149197578430175781e+00,-8.662879943847656250e+00,-8.649131774902343750e+00,-8.122356414794921875e+00,-8.157177925109863281e+00,-8.619745254516601562e+00,-8.460487365722656250e+00,-8.564020156860351562e+00,-8.399040222167968750e+00,-8.811152458190917969e+00,-8.666212081909179688e+00,-9.166255950927734375e+00,-8.654746055603027344e+00,-8.640392303466796875e+00,-8.821457862854003906e+00,-8.749975204467773438e+00,-9.043717384338378906e+00,-8.994286537170410156e+00,-9.007179260253906250e+00,-9.240036010742187500e+00,-9.042564392089843750e+00,-9.187702178955078125e+00,nan,-8.422164916992187500e+00,-8.736688613891601562e+00,-8.743686676025390625e+00,-8.798772811889648438e+00,-8.400774955749511719e+00,-8.686870574951171875e+00,-8.138268470764160156e+00,-8.603487014770507812e+00,-8.654281616210937500e+00,-8.872558593750000000e+00,-8.896382331848144531e+00,-8.716249465942382812e+00,-8.830773353576660156e+00,-8.839709281921386719e+00,-8.653203010559082031e+00,-8.609458923339843750e+00,-8.611248016357421875e+00,-8.588224411010742188e+00,-8.594182014465332031e+00,-8.552237510681152344e+00,-8.608772277832031250e+00,-8.722251892089843750e+00,-8.554642677307128906e+00,-8.609459877014160156e+00,nan,-8.584712028503417969e+00,-8.541161537170410156e+00,-8.567771911621093750e+00,-8.555382728576660156e+00,-8.448871612548828125e+00,-8.399031639099121094e+00,-8.490193367004394531e+00,-8.387022972106933594e+00,-8.364351272583007812e+00,-8.370517730712890625e+00,-8.427708625793457031e+00,-8.331208229064941406e+00,-8.305570602416992188e+00,-8.382225036621093750e+00,-8.389284133911132812e+00,-8.317674636840820312e+00,-8.340382575988769531e+00,-8.263641357421875000e+00,-8.274681091308593750e+00,-8.170604705810546875e+00,-8.229053497314453125e+00,-8.169447898864746094e+00,-8.172853469848632812e+00,-8.164349555969238281e+00,-8.020104408264160156e+00
-4.061015129089355469e+00,-9.686060905456542969e+00,-9.286436080932617188e+00,-9.431022644042968750e+00,-9.310394287109375000e+00,-5.798398971557617188e+00,-3.202572822570800781e+00,-3.222075939178466797e+00,-3.293138504028320312e+00,-3.488510370254516602e+00,-5.798197746276855469e+00,-5.382802009582519531e+00,-5.354960441589355469e+00,-5.531373023986816406e+00,-2.840811729431152344e+00,-2.826357364654541016e+00,-2.298099994659423828e+00,-2.871799468994140625e+00,-8.841341972351074219e+00,-1.150010871887207031e+01,-6.171798706054687500e+00,-2.837906360626220703e+00,-2.419531345367431641e+00,-2.468501567840576172e+00,-2.454263210296630859e+00,-7.433764457702636719e+00,-9.977683067321777344e+00,-9.947896957397460938e+00,-7.830523967742919922e+00,-1.012664318084716797e+01,-1.009917831420898438e+01,-1.008105659484863281e+01,-8.244964599609375000e+00,-7.760739803314208984e+00,-3.877909898757934570e+00,-3.785386323928833008e+00,-7.706919193267822266e+00,-7.697972774505615234e+00,-7.648506164550781250e+00,nan,nan,nan,-1.047666168212890625e+01,-7.508928298950195312e+00,-7.622463703155517578e+00,-1.031793975830078125e+01,-7.744602680206298828e+00,-7.896753311157226562e+00,-7.755562305450439453e+00,-8.288029670715332031e+00,-8.980886459350585938e+00,-8.333522796630859375e+00,-8.346688270568847656e+00,-8.703998565673828125e+00,-8.847339630126953125e+00,-8.629598617553710938e+00,-8.200186729431152344e+00,-8.205643653869628906e+00,-9.244671821594238281e+00,-8.545129776000976562e+00,-8.510675430297851562e+00,-8.481075286865234375e+00,-8.908482551574707031e+00,-6.118700981140136719e+00,-9.446424484252929688e+00,-9.227379798889160156e+00,-9.714122772216796875e+00,-9.604947090148925781e+00,-9.678886413574218750e+00,-5.781766891479492188e+00,-7.481858730316162109e+00,-6.593328952789306641e+00,-7.096820831298828125e+00,-7.597678661346435547e+00,-5.425763130187988281e+00,-8.468506813049316406e+00,-8.370578765869140625e+00,-8.499238014221191406e+00,-8.511443138122558594e+00,-8.281752586364746094e+00,-8.407962799072265625e+00,-8.387705802917480469e+00,-8.322693824768066406e+00,-8.342694282531738281e+00,-8.411432266235351562e+00,nan,nan,nan,nan,nan,-8.456398963928222656e+00,-8.735952377319335938e+00,-8.233573913574218750e+00,-8.160183906555175781e+00,-8.108479499816894531e+00,-8.091624259948730469e+00,-8.148805618286132812e+00,-8.172494888305664062e+00,-8.489702224731445312e+00,-8.259596824645996094e+00,-8.412508964538574219e+00,-8.348330497741699219e+00,-8.838389396667480469e+00,-9.435655593872070312e+00,-9.056001663208007812e+00,-8.725210189819335938e+00,-9.001678466796875000e+00,-8.378829956054687500e+00,-9.070066452026367188e+00,-9.059593200683593750e+00,-8.986256599426269531e+00,-9.133613586425781250e+00,-9.167360305786132812e+00,-8.980829238891601562e+00,-8.893346786499023438e+00,-9.131118774414062500e+00,-9.028221130371093750e+00,-8.688518524169921875e+00,-8.583224296569824219e+00,-8.463383674621582031e+00,-8.271999359130859375e+00,-8.979501724243164062e+00,-8.889738082885742188e+00,-8.880342483520507812e+00,-8.736637115478515625e+00,-8.753117561340332031e+00,-8.729387283325195312e+00,-9.097352981567382812e+00,-8.596465110778808594e+00,-8.608157157897949219e+00,-8.594377517700195312e+00,-8.664399147033691406e+00,-8.562665939331054688e+00,-8.583936691284179688e+00,-8.552238464355468750e+00,-8.577406883239746094e+00,-8.603197097778320312e+00,-8.583371162414550781e+00,-8.522297859191894531e+00,-8.532289505004882812e+00,-8.634317398071289062e+00,-8.499566078186035156e+00,-8.528116226196289062e+00,-8.492769241333007812e+00,-8.522251129150390625e+00,-8.422139167785644531e+00,-8.441595077514648438e+00,-8.383214950561523438e+00,-8.463163375854492188e+00,-8.393929481506347656e+00,-8.405763626098632812e+00,-8.398118972778320312e+00,-8.381576538085937500e+00,-8.420825958251953125e+00,-8.349176406860351562e+00,-8.275422096252441406e+00,-8.300868988037109375e+00,-8.119723320007324219e+00,-8.326202392578125000e+00,-8.277931213378906250e+00,-8.081387519836425781e+00,-8.200829505920410156e+00,-8.236442565917968750e+00,-8.213100433349609375e+00,-8.005455017089843750e+00
-4.061946868896484375e+00,-9.717822074890136719e+00,-9.680974006652832031e+00,-9.608634948730468750e+00,-9.561949729919433594e+00,-5.850432395935058594e+00,-5.752871513366699219e+00,-2.983675956726074219e+00,-3.163171768188476562e+00,-3.358813047409057617e+00,-5.961050987243652344e+00,-2.891417503356933594e+00,-2.187828063964843750e+00,-4.832869529724121094e+00,-2.722540378570556641e+00,-2.881918430328369141e+00,-2.475699901580810547e+00,-8.086285591125488281e+00,-2.940956115722656250e+00,-5.957289218902587891e+00,-8.512771606445312500e+00,-2.993929862976074219e+00,-2.445463180541992188e+00,-2.451208114624023438e+00,-2.489254951477050781e+00,-8.385747909545898438e+00,-8.378135681152343750e+00,-8.053322792053222656e+00,-1.015779304504394531e+01,-1.016179275512695312e+01,-9.445861816406250000e+00,-9.361014366149902344e+00,-9.350364685058593750e+00,-9.429827690124511719e+00,-3.661246538162231445e+00,-3.661575317382812500e+00,-7.714425563812255859e+00,-7.701844692230224609e+00,-7.687157154083251953e+00,-9.197154045104980469e+00,nan,nan,-1.045629024505615234e+01,-8.449506759643554688e+00,-1.047325038909912109e+01,-7.763915538787841797e+00,-7.810068130493164062e+00,-8.879668235778808594e+00,-8.769159317016601562e+00,-8.701763153076171875e+00,-8.665806770324707031e+00,-8.282858848571777344e+00,-8.672281265258789062e+00,-8.656840324401855469e+00,-8.758459091186523438e+00,-8.619697570800781250e+00,-8.195446968078613281e+00,-9.098529815673828125e+00,-9.095686912536621094e+00,-8.555500984191894531e+00,-8.522687911987304688e+00,-8.512141227722167969e+00,-1.012106418609619141e+01,-9.153311729431152344e+00,-9.706221580505371094e+00,-9.434066772460937500e+00,-9.330259323120117188e+00,-9.319749832153320312e+00,-6.361018180847167969e+00,-7.255492210388183594e+00,-5.673187255859375000e+00,-5.604506492614746094e+00,-5.522300243377685547e+00,-8.379777908325195312e+00,-8.423029899597167969e+00,-8.375212669372558594e+00,-8.374150276184082031e+00,-8.369569778442382812e+00,-8.316474914550781250e+00,-9.891042709350585938e+00,-8.442583084106445312e+00,-8.627061843872070312e+00,-8.440482139587402344e+00,-8.330540657043457031e+00,-8.209902763366699219e+00,nan,nan,-8.152082443237304688e+00,-8.903431892395019531e+00,-8.373768806457519531e+00,-8.461276054382324219e+00,-8.279861450195312500e+00,-8.140135765075683594e+00,-8.531724929809570312e+00,-8.112853050231933594e+00,-8.256985664367675781e+00,-8.146801948547363281e+00,-8.266315460205078125e+00,-8.430263519287109375e+00,-8.491347312927246094e+00,-8.621508598327636719e+00,-8.112052917480468750e+00,-9.028850555419921875e+00,-8.957065582275390625e+00,-9.023778915405273438e+00,-8.704956054687500000e+00,-8.465942382812500000e+00,-8.708322525024414062e+00,-8.043270111083984375e+00,-8.633217811584472656e+00,-9.200115203857421875e+00,-8.476457595825195312e+00,nan,-9.147000312805175781e+00,-9.042582511901855469e+00,-9.117628097534179688e+00,-8.751653671264648438e+00,-8.980897903442382812e+00,-8.369370460510253906e+00,-8.441718101501464844e+00,-8.996180534362792969e+00,nan,-8.731614112854003906e+00,-8.780557632446289062e+00,nan,-8.842558860778808594e+00,-8.697556495666503906e+00,-8.781586647033691406e+00,-8.808819770812988281e+00,-8.587585449218750000e+00,-8.577508926391601562e+00,-8.558597564697265625e+00,-8.624156951904296875e+00,-8.595248222351074219e+00,-8.718821525573730469e+00,-8.603955268859863281e+00,-8.552535057067871094e+00,-8.545794486999511719e+00,-8.585906982421875000e+00,-8.530199050903320312e+00,-8.539560317993164062e+00,-8.575157165527343750e+00,-8.494483947753906250e+00,-8.493772506713867188e+00,-8.485216140747070312e+00,-8.527895927429199219e+00,-8.472281455993652344e+00,-8.363944053649902344e+00,-8.380897521972656250e+00,-8.398675918579101562e+00,-8.434018135070800781e+00,-8.294225692749023438e+00,-8.378829956054687500e+00,-8.387330055236816406e+00,-8.353967666625976562e+00,-8.339043617248535156e+00,-8.249310493469238281e+00,-8.331614494323730469e+00,-8.240793228149414062e+00,-8.309361457824707031e+00,-8.171423912048339844e+00,-8.058881759643554688e+00,-7.992152690887451172e+00,-8.022365570068359375e+00,-8.064543724060058594e+00
-9.720472335815429688e+00,-5.840168952941894531e+00,-9.689519882202148438e+00,-9.479596138000488281e+00,-9.355054855346679688e+00,-9.179130554199218750e+00,-2.811265945434570312e+00,-1.136504745483398438e+01,-3.346590042114257812e+00,-3.412180423736572266e+00,-3.414857387542724609e+00,-2.066964149475097656e+00,-8.936369895935058594e+00,-3.036516666412353516e+00,-2.936562538146972656e+00,-2.417784690856933594e+00,-2.401435852050781250e+00,-8.204946517944335938e+00,-2.976719379425048828e+00,-8.519843101501464844e+00,-8.544426918029785156e+00,-7.175106048583984375e+00,-8.850086212158203125e+00,-6.598734855651855469e+00,-7.635405063629150391e+00,-2.571477890014648438e+00,-6.972023010253906250e+00,-8.095276832580566406e+00,-1.017101669311523438e+01,-7.852836132049560547e+00,-7.805976867675781250e+00,-7.742262840270996094e+00,-9.271074295043945312e+00,-7.804281234741210938e+00,-9.621588706970214844e+00,-7.690538406372070312e+00,-7.715331077575683594e+00,-7.708723545074462891e+00,-8.942167282104492188e+00,-8.936120033264160156e+00,-8.609483718872070312e+00,-8.571937561035156250e+00,-8.465148925781250000e+00,-8.448162078857421875e+00,-8.572831153869628906e+00,-9.170678138732910156e+00,-9.146937370300292969e+00,-9.679906845092773438e+00,-8.232452392578125000e+00,-8.400867462158203125e+00,-8.268954277038574219e+00,-7.809272766113281250e+00,-7.867631912231445312e+00,-7.853232860565185547e+00,-8.645214080810546875e+00,-8.634299278259277344e+00,-7.525558471679687500e+00,-9.024803161621093750e+00,-9.139611244201660156e+00,-9.255142211914062500e+00,-8.734463691711425781e+00,-8.464381217956542969e+00,-9.441495895385742188e+00,-9.189075469970703125e+00,-9.737418174743652344e+00,-9.550378799438476562e+00,-9.409068107604980469e+00,-5.780680179595947266e+00,-6.092151641845703125e+00,-7.690781116485595703e+00,-6.617068290710449219e+00,-5.013889312744140625e+00,-8.380275726318359375e+00,-8.457948684692382812e+00,-8.378811836242675781e+00,-8.325733184814453125e+00,-8.323906898498535156e+00,-8.377063751220703125e+00,-8.362398147583007812e+00,-8.462754249572753906e+00,-8.544600486755371094e+00,-8.546436309814453125e+00,-8.616787910461425781e+00,-8.389682769775390625e+00,-8.282999038696289062e+00,-7.954899787902832031e+00,nan,-8.202182769775390625e+00,-8.435934066772460938e+00,-8.427508354187011719e+00,-8.066415786743164062e+00,-8.218725204467773438e+00,-8.068822860717773438e+00,-8.097997665405273438e+00,-8.078958511352539062e+00,-8.935252189636230469e+00,-8.103569030761718750e+00,-8.294427871704101562e+00,-8.558699607849121094e+00,-8.407192230224609375e+00,-8.742256164550781250e+00,-7.970005035400390625e+00,-8.867075920104980469e+00,-8.984540939331054688e+00,-9.065310478210449219e+00,-9.013984680175781250e+00,-9.109266281127929688e+00,-8.661934852600097656e+00,-9.093822479248046875e+00,-8.804140090942382812e+00,-9.101724624633789062e+00,-9.067045211791992188e+00,-9.162858009338378906e+00,-9.034294128417968750e+00,-8.886505126953125000e+00,-8.983436584472656250e+00,-8.989314079284667969e+00,-8.340616226196289062e+00,-8.594110488891601562e+00,-8.957953453063964844e+00,-8.913084030151367188e+00,-8.631451606750488281e+00,-8.685767173767089844e+00,-8.908394813537597656e+00,nan,-8.725547790527343750e+00,-8.625736236572265625e+00,-8.631675720214843750e+00,-8.617651939392089844e+00,-8.628725051879882812e+00,-8.604668617248535156e+00,-8.612836837768554688e+00,-8.531238555908203125e+00,-8.620250701904296875e+00,-8.625567436218261719e+00,-8.583745956420898438e+00,-8.640233039855957031e+00,-8.555602073669433594e+00,-8.555418014526367188e+00,-8.513265609741210938e+00,-8.553012847900390625e+00,-8.568113327026367188e+00,-8.578754425048828125e+00,-8.440040588378906250e+00,-8.464740753173828125e+00,-8.488894462585449219e+00,-8.489480972290039062e+00,-8.408394813537597656e+00,-8.449548721313476562e+00,-8.270036697387695312e+00,-8.414300918579101562e+00,-8.252889633178710938e+00,-8.400922775268554688e+00,-8.451045036315917969e+00,-8.325385093688964844e+00,-8.207222938537597656e+00,-8.093841552734375000e+00,-8.180977821350097656e+00,-8.116817474365234375e+00,-8.099375724792480469e+00,-8.097887039184570312e+00,-8.074319839477539062e+00,-8.106130599975585938e+00,-8.029140472412109375e+00,-8.094511985778808594e+00
-5.506089210510253906e+00,-9.542023658752441406e+00,-9.361526489257812500e+00,-9.557394027709960938e+00,-9.601293563842773438e+00,-9.313838958740234375e+00,-2.834915637969970703e+00,-3.387005567550659180e+00,-9.852952957153320312e+00,-3.413712263107299805e+00,-3.389366626739501953e+00,-9.292758941650390625e+00,-9.273969650268554688e+00,-2.958653450012207031e+00,-2.948280811309814453e+00,-2.967516899108886719e+00,-2.981689453125000000e+00,-4.651944160461425781e+00,-8.435577392578125000e+00,-8.429386138916015625e+00,-7.120591640472412109e+00,-9.163301467895507812e+00,-7.193686008453369141e+00,-4.389647483825683594e+00,-2.614943027496337891e+00,-2.609633922576904297e+00,-6.512316226959228516e+00,-6.969787120819091797e+00,-8.264603614807128906e+00,-7.849627017974853516e+00,-7.838287830352783203e+00,-9.433511734008789062e+00,-9.578158378601074219e+00,-8.948698997497558594e+00,-9.619739532470703125e+00,-7.738911151885986328e+00,-7.723953247070312500e+00,-7.711548328399658203e+00,-8.946042060852050781e+00,-8.935467720031738281e+00,-8.769719123840332031e+00,-8.477797508239746094e+00,-8.461626052856445312e+00,-8.773333549499511719e+00,-8.798532485961914062e+00,-9.068435668945312500e+00,-9.448623657226562500e+00,-9.232874870300292969e+00,-7.995297431945800781e+00,-9.412626266479492188e+00,-9.976431846618652344e+00,-8.292142868041992188e+00,-8.156933784484863281e+00,-8.253534317016601562e+00,-7.514996051788330078e+00,-8.187844276428222656e+00,-7.705608844757080078e+00,-8.944305419921875000e+00,-9.066327095031738281e+00,-7.693634033203125000e+00,-8.469517707824707031e+00,-9.155407905578613281e+00,-9.474709510803222656e+00,-5.274033546447753906e+00,-9.474741935729980469e+00,-9.685744285583496094e+00,-9.201348304748535156e+00,-5.857781410217285156e+00,-7.213088989257812500e+00,-4.737635135650634766e+00,-1.002548694610595703e+01,-8.428458213806152344e+00,-8.626699447631835938e+00,-9.935424804687500000e+00,-9.931692123413085938e+00,-8.388021469116210938e+00,-8.356672286987304688e+00,-8.368238449096679688e+00,-8.395442962646484375e+00,-8.603624343872070312e+00,-8.551779747009277344e+00,-8.602862358093261719e+00,-8.667678833007812500e+00,-8.493044853210449219e+00,-8.128669738769531250e+00,-8.213961601257324219e+00,-8.316804885864257812e+00,-8.332873344421386719e+00,-8.461173057556152344e+00,-8.340636253356933594e+00,-8.306632041931152344e+00,-8.371379852294921875e+00,-8.071413040161132812e+00,-8.025410652160644531e+00,-8.067594528198242188e+00,-8.076047897338867188e+00,-8.176735877990722656e+00,-8.358330726623535156e+00,-8.447617530822753906e+00,-8.403233528137207031e+00,-9.413124084472656250e+00,-8.216079711914062500e+00,-8.180284500122070312e+00,-9.169563293457031250e+00,-8.030794143676757812e+00,-9.089047431945800781e+00,-9.099880218505859375e+00,-9.081624031066894531e+00,-8.843071937561035156e+00,-9.064524650573730469e+00,-8.487718582153320312e+00,-8.959640502929687500e+00,nan,-9.074703216552734375e+00,-8.395576477050781250e+00,-8.577065467834472656e+00,-8.824507713317871094e+00,-8.375554084777832031e+00,-8.723580360412597656e+00,-8.832241058349609375e+00,-8.862167358398437500e+00,-8.673186302185058594e+00,-8.742323875427246094e+00,-8.363781929016113281e+00,nan,-8.767326354980468750e+00,-8.668354988098144531e+00,-8.686936378479003906e+00,-8.796374320983886719e+00,-8.636818885803222656e+00,-8.596558570861816406e+00,-8.507032394409179688e+00,nan,-8.973377227783203125e+00,-8.564907073974609375e+00,-8.565254211425781250e+00,-8.638114929199218750e+00,-8.535557746887207031e+00,-8.570533752441406250e+00,-8.521731376647949219e+00,-8.470151901245117188e+00,-8.537243843078613281e+00,-8.418478012084960938e+00,-8.611413002014160156e+00,-8.432315826416015625e+00,-8.361657142639160156e+00,-8.378611564636230469e+00,-8.309782028198242188e+00,-8.449342727661132812e+00,-8.432211875915527344e+00,-8.453204154968261719e+00,-8.311460494995117188e+00,-8.216866493225097656e+00,-8.204364776611328125e+00,-8.306866645812988281e+00,-8.193834304809570312e+00,-8.112548828125000000e+00,-8.052568435668945312e+00,-8.083358764648437500e+00,-8.087038040161132812e+00,-8.109416007995605469e+00,-8.097507476806640625e+00,-7.964032649993896484e+00,-8.026877403259277344e+00,-8.022994995117187500e+00
-5.658105850219726562e+00,-9.475294113159179688e+00,-1.025048351287841797e+01,-9.623885154724121094e+00,-3.074728488922119141e+00,-2.920633316040039062e+00,-2.894922733306884766e+00,-3.069653034210205078e+00,-9.835851669311523438e+00,-9.838111877441406250e+00,-9.729945182800292969e+00,-9.561470031738281250e+00,-9.431791305541992188e+00,-3.001336574554443359e+00,-3.007133960723876953e+00,-2.630153179168701172e+00,-2.823843479156494141e+00,-5.832019805908203125e+00,-8.294815063476562500e+00,-8.513892173767089844e+00,-6.747380256652832031e+00,-9.021104812622070312e+00,-8.557633399963378906e+00,-6.771810054779052734e+00,-2.742388725280761719e+00,-2.673875331878662109e+00,-6.532339096069335938e+00,-6.998566627502441406e+00,-9.910720825195312500e+00,-9.729690551757812500e+00,-7.837786674499511719e+00,-1.065903663635253906e+01,-7.331102371215820312e+00,-9.539554595947265625e+00,-9.611641883850097656e+00,-7.743431568145751953e+00,-7.732286930084228516e+00,-7.718459129333496094e+00,-9.011532783508300781e+00,-9.190967559814453125e+00,-9.213953018188476562e+00,nan,-8.832354545593261719e+00,-8.836613655090332031e+00,-8.694867134094238281e+00,-8.459328651428222656e+00,-8.616374015808105469e+00,-9.008951187133789062e+00,-7.928692817687988281e+00,-7.843778133392333984e+00,-7.518383979797363281e+00,-8.784234046936035156e+00,-8.737176895141601562e+00,-8.200880050659179688e+00,-7.442322731018066406e+00,-7.832448482513427734e+00,-8.175930023193359375e+00,-9.311343193054199219e+00,-9.112195968627929688e+00,-9.354916572570800781e+00,-7.735919475555419922e+00,-9.385959625244140625e+00,-9.447725296020507812e+00,-9.615244865417480469e+00,-9.270597457885742188e+00,-7.133840084075927734e+00,-6.130838394165039062e+00,-5.315421104431152344e+00,-8.527385711669921875e+00,-8.379654884338378906e+00,-8.477103233337402344e+00,-8.456796646118164062e+00,-8.490897178649902344e+00,-8.469229698181152344e+00,-8.410985946655273438e+00,-8.424008369445800781e+00,-8.712037086486816406e+00,-8.387688636779785156e+00,-8.466047286987304688e+00,-8.406759262084960938e+00,-8.533172607421875000e+00,-8.620532989501953125e+00,-8.515925407409667969e+00,-8.732201576232910156e+00,-8.315157890319824219e+00,-8.130809783935546875e+00,-8.124044418334960938e+00,-8.401564598083496094e+00,-8.349552154541015625e+00,-8.283072471618652344e+00,-8.291333198547363281e+00,-8.426847457885742188e+00,-8.517883300781250000e+00,-8.141847610473632812e+00,-8.109044075012207031e+00,-8.103627204895019531e+00,-8.258082389831542969e+00,-8.384291648864746094e+00,-8.182753562927246094e+00,-8.162433624267578125e+00,-8.276754379272460938e+00,-8.368951797485351562e+00,-8.141019821166992188e+00,-8.747631072998046875e+00,-8.921366691589355469e+00,-7.838304519653320312e+00,-8.915469169616699219e+00,-8.900486946105957031e+00,-8.679152488708496094e+00,-9.044442176818847656e+00,-9.005346298217773438e+00,-8.857543945312500000e+00,-8.889649391174316406e+00,-8.449797630310058594e+00,-8.469752311706542969e+00,-9.072755813598632812e+00,-9.103719711303710938e+00,-8.817926406860351562e+00,-8.792893409729003906e+00,-8.853630065917968750e+00,-8.927488327026367188e+00,-8.882069587707519531e+00,-8.711693763732910156e+00,-8.720168113708496094e+00,nan,-8.689888000488281250e+00,-8.655523300170898438e+00,-8.604518890380859375e+00,-8.580946922302246094e+00,-8.528797149658203125e+00,nan,-8.547110557556152344e+00,-8.572290420532226562e+00,nan,-8.524693489074707031e+00,-8.541612625122070312e+00,-8.535612106323242188e+00,-8.518115997314453125e+00,-8.561327934265136719e+00,nan,-8.456774711608886719e+00,-8.486987113952636719e+00,nan,nan,-8.404376983642578125e+00,-8.359125137329101562e+00,-8.287366867065429688e+00,-8.226702690124511719e+00,-8.418634414672851562e+00,-8.322958946228027344e+00,-8.243415832519531250e+00,-8.220563888549804688e+00,-8.265977859497070312e+00,-8.217376708984375000e+00,-8.137252807617187500e+00,-8.139986038208007812e+00,-8.238520622253417969e+00,-8.110658645629882812e+00,-8.097660064697265625e+00,-7.971393108367919922e+00,-7.975697517395019531e+00,-8.065645217895507812e+00,-8.039689064025878906e+00,-8.035566329956054688e+00,-7.961192131042480469e+00
-5.671217918395996094e+00,-9.832946777343750000e+00,-9.433771133422851562e+00,-9.982223510742187500e+00,-3.034711837768554688e+00,-2.883089542388916016e+00,-2.915007114410400391e+00,-2.927922725677490234e+00,-9.580059051513671875e+00,-9.785867691040039062e+00,-5.758210182189941406e+00,-9.722992897033691406e+00,-9.537451744079589844e+00,-2.929221153259277344e+00,-3.061391830444335938e+00,-2.525380611419677734e+00,-4.775925159454345703e+00,-8.343190193176269531e+00,-8.200144767761230469e+00,-5.408782005310058594e+00,-8.286425590515136719e+00,-9.225798606872558594e+00,-6.881106853485107422e+00,-6.653502941131591797e+00,-4.830972194671630859e+00,-2.550373077392578125e+00,-2.354091167449951172e+00,-1.042713165283203125e+01,-7.892467021942138672e+00,-7.643704891204833984e+00,-9.234466552734375000e+00,-7.381167411804199219e+00,-8.444183349609375000e+00,-8.174652099609375000e+00,-7.766743659973144531e+00,-7.773661136627197266e+00,-7.737074375152587891e+00,-8.803794860839843750e+00,-8.838057518005371094e+00,-9.310659408569335938e+00,-9.234591484069824219e+00,-9.237996101379394531e+00,-9.041817665100097656e+00,nan,-9.073534965515136719e+00,-8.532340049743652344e+00,-8.369210243225097656e+00,-8.349266052246093750e+00,-7.998459339141845703e+00,-7.837522029876708984e+00,-7.732279300689697266e+00,-7.875599384307861328e+00,-7.863660812377929688e+00,-8.609653472900390625e+00,-8.275779724121093750e+00,-8.555348396301269531e+00,-8.173692703247070312e+00,-8.219473838806152344e+00,-9.034379959106445312e+00,-7.753468513488769531e+00,-9.587151527404785156e+00,-9.443701744079589844e+00,-9.472351074218750000e+00,-4.979735374450683594e+00,-9.270647048950195312e+00,-7.331377983093261719e+00,-4.707265377044677734e+00,nan,-8.634743690490722656e+00,-8.496807098388671875e+00,-8.419967651367187500e+00,-8.478176116943359375e+00,-8.428937911987304688e+00,-8.439638137817382812e+00,-8.531268119812011719e+00,-8.527144432067871094e+00,-8.477416992187500000e+00,-8.539045333862304688e+00,-8.502278327941894531e+00,-8.630862236022949219e+00,-8.628740310668945312e+00,-8.620130538940429688e+00,-8.792451858520507812e+00,-8.800385475158691406e+00,-8.566467285156250000e+00,-8.163304328918457031e+00,-8.204094886779785156e+00,-8.419611930847167969e+00,-8.381708145141601562e+00,-8.343956947326660156e+00,-8.310639381408691406e+00,-8.107054710388183594e+00,-8.112621307373046875e+00,-8.372994422912597656e+00,-8.462291717529296875e+00,-8.160438537597656250e+00,-8.275806427001953125e+00,-8.383859634399414062e+00,-8.165673255920410156e+00,-8.186679840087890625e+00,-8.081963539123535156e+00,-8.120253562927246094e+00,-8.094635009765625000e+00,-9.068433761596679688e+00,-8.104913711547851562e+00,-7.898314476013183594e+00,-9.014311790466308594e+00,-7.761140346527099609e+00,-9.156069755554199219e+00,-9.212857246398925781e+00,-9.045441627502441406e+00,-7.893918037414550781e+00,-8.772090911865234375e+00,-8.477104187011718750e+00,-8.372723579406738281e+00,-8.790450096130371094e+00,-8.836395263671875000e+00,-8.930904388427734375e+00,-8.929460525512695312e+00,-8.763175964355468750e+00,-8.638560295104980469e+00,-8.825804710388183594e+00,-8.820240020751953125e+00,nan,-8.677516937255859375e+00,-8.647025108337402344e+00,-8.765255928039550781e+00,-8.632460594177246094e+00,-8.568979263305664062e+00,-8.628269195556640625e+00,-8.643806457519531250e+00,-8.536435127258300781e+00,-8.521021842956542969e+00,-8.462452888488769531e+00,-8.566538810729980469e+00,-8.494617462158203125e+00,-8.580890655517578125e+00,-8.506608963012695312e+00,-8.521420478820800781e+00,-8.489433288574218750e+00,-8.443390846252441406e+00,-8.460902214050292969e+00,-8.467517852783203125e+00,-8.375925064086914062e+00,-8.393610000610351562e+00,-8.358534812927246094e+00,-8.400539398193359375e+00,-8.271570205688476562e+00,-8.336918830871582031e+00,-8.314102172851562500e+00,-8.311697959899902344e+00,-8.330149650573730469e+00,-8.318747520446777344e+00,-8.282043457031250000e+00,-8.123087882995605469e+00,-8.211665153503417969e+00,-8.046001434326171875e+00,-8.053854942321777344e+00,-8.071055412292480469e+00,-8.016217231750488281e+00,-7.935972213745117188e+00,-7.975026607513427734e+00,-8.038974761962890625e+00,-7.998106956481933594e+00,-8.007598876953125000e+00
-5.606002330780029297e+00,-5.604799270629882812e+00,-8.950163841247558594e+00,-8.964239120483398438e+00,-9.979942321777343750e+00,-9.968734741210937500e+00,-2.946527957916259766e+00,-2.946052551269531250e+00,-9.865026473999023438e+00,-5.897237300872802734e+00,-9.596965789794921875e+00,-9.717975616455078125e+00,-3.283251285552978516e+00,-3.057513236999511719e+00,-2.563999176025390625e+00,-3.097669124603271484e+00,-5.441881179809570312e+00,-5.287675857543945312e+00,-7.532722949981689453e+00,-9.306618690490722656e+00,-8.931243896484375000e+00,-8.225710868835449219e+00,-8.062591552734375000e+00,-7.815804958343505859e+00,-7.411478042602539062e+00,-8.389443397521972656e+00,-7.148200511932373047e+00,-7.915235519409179688e+00,-2.223314285278320312e+00,-7.631488323211669922e+00,-9.411215782165527344e+00,-9.169341087341308594e+00,-8.823179244995117188e+00,-9.034310340881347656e+00,-8.197916030883789062e+00,-7.333060264587402344e+00,-7.348957538604736328e+00,-7.868536472320556641e+00,-9.507527351379394531e+00,-9.230134963989257812e+00,-8.818629264831542969e+00,-8.481053352355957031e+00,-6.988179683685302734e+00,nan,nan,-8.476111412048339844e+00,-8.348295211791992188e+00,-8.333220481872558594e+00,-8.361135482788085938e+00,-1.001650714874267578e+01,-7.851909637451171875e+00,-7.495103836059570312e+00,-7.862694740295410156e+00,-8.600860595703125000e+00,-8.220326423645019531e+00,-8.551141738891601562e+00,-8.534214019775390625e+00,-8.515811920166015625e+00,-7.713856697082519531e+00,-7.741445064544677734e+00,-7.744862079620361328e+00,-7.736836433410644531e+00,-9.452248573303222656e+00,-4.846077919006347656e+00,-9.424958229064941406e+00,-7.351252555847167969e+00,nan,-8.436441421508789062e+00,-8.414027214050292969e+00,-8.516159057617187500e+00,-9.209001541137695312e+00,-8.456959724426269531e+00,-8.461979866027832031e+00,-8.588309288024902344e+00,-8.425499916076660156e+00,-8.417122840881347656e+00,-8.602544784545898438e+00,-8.567111968994140625e+00,-8.400831222534179688e+00,-8.445399284362792969e+00,-8.598685264587402344e+00,-8.458795547485351562e+00,-8.599042892456054688e+00,-8.706522941589355469e+00,-8.481764793395996094e+00,-8.423423767089843750e+00,-8.284774780273437500e+00,-8.423081398010253906e+00,-8.375729560852050781e+00,-8.406023025512695312e+00,-8.322916984558105469e+00,-8.044953346252441406e+00,-8.103389739990234375e+00,-8.653099060058593750e+00,-8.279668807983398438e+00,-8.331204414367675781e+00,-8.355078697204589844e+00,-8.424480438232421875e+00,-8.200071334838867188e+00,-8.080300331115722656e+00,-8.933964729309082031e+00,-8.120347023010253906e+00,-9.001959800720214844e+00,-8.944343566894531250e+00,-9.131296157836914062e+00,-9.170272827148437500e+00,-8.959497451782226562e+00,-8.102849006652832031e+00,-9.242115020751953125e+00,-8.818000793457031250e+00,-8.886228561401367188e+00,-8.968214035034179688e+00,-8.447028160095214844e+00,-8.489548683166503906e+00,-8.212326049804687500e+00,-8.634443283081054688e+00,nan,-8.798118591308593750e+00,-8.793838500976562500e+00,-8.753187179565429688e+00,-8.746461868286132812e+00,-8.761272430419921875e+00,-8.689682006835937500e+00,-8.679437637329101562e+00,-8.683120727539062500e+00,nan,-8.623204231262207031e+00,-8.635796546936035156e+00,-8.617301940917968750e+00,-8.521091461181640625e+00,-8.474206924438476562e+00,-8.552846908569335938e+00,-8.477136611938476562e+00,-8.482925415039062500e+00,-8.512495994567871094e+00,-8.494927406311035156e+00,-8.550253868103027344e+00,-8.464109420776367188e+00,-8.466599464416503906e+00,-8.433765411376953125e+00,-8.457180023193359375e+00,-8.466423988342285156e+00,-8.348144531250000000e+00,-8.366150856018066406e+00,-8.323204040527343750e+00,-8.442883491516113281e+00,-8.381409645080566406e+00,-8.277888298034667969e+00,-8.273628234863281250e+00,nan,-8.260953903198242188e+00,-8.188192367553710938e+00,-8.202817916870117188e+00,-8.271245956420898438e+00,-8.143199920654296875e+00,-8.123272895812988281e+00,-7.748207569122314453e+00,-8.046704292297363281e+00,-8.007778167724609375e+00,-7.855300903320312500e+00,-7.864296913146972656e+00,-8.028203010559082031e+00,-8.023295402526855469e+00,-7.922666549682617188e+00,-7.395109176635742188e+00
-5.288284778594970703e+00,-6.443686962127685547e+00,-6.217484474182128906e+00,-6.031925678253173828e+00,-6.674177169799804688e+00,-5.732401371002197266e+00,-5.954216957092285156e+00,-9.890479087829589844e+00,-9.828490257263183594e+00,-5.961289405822753906e+00,-9.802188873291015625e+00,-3.097856998443603516e+00,-2.723534584045410156e+00,-2.789748668670654297e+00,-2.619439601898193359e+00,-2.631355285644531250e+00,-7.685680389404296875e+00,-7.910229206085205078e+00,-8.589446067810058594e+00,-7.849200248718261719e+00,-8.936190605163574219e+00,-8.990708351135253906e+00,-6.504525661468505859e+00,-7.053685188293457031e+00,-8.415837287902832031e+00,-8.396326065063476562e+00,-6.147673130035400391e+00,-1.047033691406250000e+01,-8.335798263549804688e+00,-1.044133186340332031e+01,-1.013122940063476562e+01,-1.005762481689453125e+01,-9.021163940429687500e+00,-8.607418060302734375e+00,-7.352146625518798828e+00,-7.339714050292968750e+00,-7.327685832977294922e+00,-8.551242828369140625e+00,-9.488147735595703125e+00,-8.690399169921875000e+00,-8.476852416992187500e+00,-7.091495037078857422e+00,-8.707734107971191406e+00,-8.714961051940917969e+00,-8.340236663818359375e+00,-7.912093639373779297e+00,-8.171587944030761719e+00,-9.650115966796875000e+00,-7.578504085540771484e+00,-7.526020526885986328e+00,-7.515396118164062500e+00,-7.857755184173583984e+00,-8.595651626586914062e+00,-8.206194877624511719e+00,-8.193531036376953125e+00,-8.169685363769531250e+00,-8.518399238586425781e+00,-8.505281448364257812e+00,-8.123624801635742188e+00,-9.270961761474609375e+00,-8.081584930419921875e+00,-8.060246467590332031e+00,-7.696044445037841797e+00,-7.844075202941894531e+00,nan,-8.564333915710449219e+00,-8.345336914062500000e+00,-8.413885116577148438e+00,-9.694217681884765625e+00,-8.454389572143554688e+00,-8.462469100952148438e+00,-8.438894271850585938e+00,-8.555241584777832031e+00,-8.412909507751464844e+00,-8.503686904907226562e+00,-8.560013771057128906e+00,-8.650193214416503906e+00,-8.423114776611328125e+00,-8.418623924255371094e+00,-8.563291549682617188e+00,-8.483672142028808594e+00,-8.512492179870605469e+00,-8.464932441711425781e+00,nan,-8.579743385314941406e+00,nan,-8.494782447814941406e+00,-8.376220703125000000e+00,-8.322504997253417969e+00,-8.365729331970214844e+00,-8.348858833312988281e+00,nan,nan,nan,-8.450735092163085938e+00,-8.580920219421386719e+00,-8.361212730407714844e+00,nan,-8.738829612731933594e+00,nan,nan,-8.253436088562011719e+00,-9.013790130615234375e+00,-8.880682945251464844e+00,-8.385472297668457031e+00,-9.075027465820312500e+00,-8.691471099853515625e+00,-9.158208847045898438e+00,-9.018683433532714844e+00,-8.980993270874023438e+00,-9.185503005981445312e+00,-8.812047004699707031e+00,-8.819551467895507812e+00,-8.703455924987792969e+00,-8.388298034667968750e+00,-8.193307876586914062e+00,-8.809774398803710938e+00,-8.906417846679687500e+00,-8.283451080322265625e+00,-8.873703956604003906e+00,-8.708211898803710938e+00,-8.758127212524414062e+00,nan,-8.846267700195312500e+00,nan,-8.758398056030273438e+00,-8.596629142761230469e+00,-8.659775733947753906e+00,-8.534844398498535156e+00,-8.494620323181152344e+00,-8.453584671020507812e+00,-8.419190406799316406e+00,-8.461812019348144531e+00,-8.500943183898925781e+00,-8.613488197326660156e+00,-8.559779167175292969e+00,-8.451371192932128906e+00,-8.430119514465332031e+00,-8.438120841979980469e+00,-8.396464347839355469e+00,-8.419762611389160156e+00,nan,-8.315959930419921875e+00,-8.316472053527832031e+00,-8.350098609924316406e+00,-8.346808433532714844e+00,-8.343884468078613281e+00,-8.316809654235839844e+00,-8.309776306152343750e+00,-8.281125068664550781e+00,-8.266560554504394531e+00,-8.259894371032714844e+00,-8.228035926818847656e+00,-8.143759727478027344e+00,-8.002092361450195312e+00,-7.884998321533203125e+00,-8.022830963134765625e+00,-7.964202880859375000e+00,-7.965404510498046875e+00,-7.757388591766357422e+00,-7.624711990356445312e+00,-7.822780609130859375e+00,-8.016077995300292969e+00,-7.968580722808837891e+00,-7.839401245117187500e+00
-6.408959388732910156e+00,-5.968238353729248047e+00,-6.214972019195556641e+00,-6.299985408782958984e+00,-6.160609245300292969e+00,-9.945183753967285156e+00,-9.940559387207031250e+00,-5.961119651794433594e+00,-6.297370433807373047e+00,-7.770669937133789062e+00,-6.167490005493164062e+00,-2.642708778381347656e+00,-2.788422584533691406e+00,-2.640829563140869141e+00,-2.654096126556396484e+00,-7.657320976257324219e+00,-7.655114650726318359e+00,-7.720635890960693359e+00,-7.841410636901855469e+00,-8.910590171813964844e+00,-9.371854782104492188e+00,-6.666293144226074219e+00,-9.103793144226074219e+00,-7.264476299285888672e+00,-6.291808605194091797e+00,-6.157602310180664062e+00,-6.152670860290527344e+00,-7.928035259246826172e+00,-8.423282623291015625e+00,-8.612812995910644531e+00,-8.288568496704101562e+00,-9.602628707885742188e+00,-9.544370651245117188e+00,-7.424839019775390625e+00,-7.780422210693359375e+00,-8.648177146911621094e+00,-7.749190330505371094e+00,-7.729127883911132812e+00,-7.565595626831054688e+00,-8.090689659118652344e+00,-7.864229202270507812e+00,-7.935079574584960938e+00,-8.248311042785644531e+00,-8.418603897094726562e+00,-8.559394836425781250e+00,-8.282744407653808594e+00,-8.686712265014648438e+00,-7.602925300598144531e+00,-7.661858081817626953e+00,-7.507215499877929688e+00,-8.253292083740234375e+00,-7.499297142028808594e+00,-7.487795829772949219e+00,-8.184693336486816406e+00,-8.186207771301269531e+00,-8.145038604736328125e+00,-8.149174690246582031e+00,-8.484278678894042969e+00,-7.757505893707275391e+00,-9.523931503295898438e+00,-9.685132980346679688e+00,-7.705512046813964844e+00,-7.699000358581542969e+00,-8.553390502929687500e+00,-8.649185180664062500e+00,-8.480851173400878906e+00,nan,-8.452180862426757812e+00,nan,-8.532814979553222656e+00,-8.514796257019042969e+00,-8.513130187988281250e+00,-8.460162162780761719e+00,-8.415979385375976562e+00,nan,-8.891315460205078125e+00,-8.491570472717285156e+00,-8.509428977966308594e+00,-8.494236946105957031e+00,-8.603641510009765625e+00,-8.644139289855957031e+00,-8.543656349182128906e+00,-8.523618698120117188e+00,-8.688802719116210938e+00,-8.297122955322265625e+00,-8.306682586669921875e+00,-8.259377479553222656e+00,-8.391407966613769531e+00,-8.337441444396972656e+00,-8.350340843200683594e+00,-8.377963066101074219e+00,-8.755427360534667969e+00,-8.935810089111328125e+00,-8.997322082519531250e+00,-9.032366752624511719e+00,-8.487750053405761719e+00,-8.469527244567871094e+00,-9.067316055297851562e+00,-8.943172454833984375e+00,-9.065356254577636719e+00,-9.160095214843750000e+00,-9.133107185363769531e+00,-9.009517669677734375e+00,-8.928707122802734375e+00,-8.276481628417968750e+00,-8.996768951416015625e+00,-9.010937690734863281e+00,-8.974040985107421875e+00,-8.872887611389160156e+00,-8.802515029907226562e+00,-9.091490745544433594e+00,-8.399188041687011719e+00,-8.660243034362792969e+00,-8.719728469848632812e+00,-8.820920944213867188e+00,-8.832355499267578125e+00,-8.811125755310058594e+00,-8.942880630493164062e+00,-9.016630172729492188e+00,-8.839056968688964844e+00,-8.701765060424804688e+00,nan,nan,nan,-8.700464248657226562e+00,-8.728569984436035156e+00,-8.550014495849609375e+00,-8.553933143615722656e+00,-8.522237777709960938e+00,-8.475687980651855469e+00,-8.465430259704589844e+00,-8.497499465942382812e+00,-8.450268745422363281e+00,nan,-8.455367088317871094e+00,-8.451967239379882812e+00,-8.444236755371093750e+00,-8.480834960937500000e+00,nan,nan,-8.549037933349609375e+00,-8.379220962524414062e+00,-8.388439178466796875e+00,nan,-8.297783851623535156e+00,-8.357567787170410156e+00,-8.356551170349121094e+00,-8.332339286804199219e+00,-8.334812164306640625e+00,-8.205519676208496094e+00,-8.186421394348144531e+00,-8.201103210449218750e+00,-8.106783866882324219e+00,-8.128707885742187500e+00,-8.082161903381347656e+00,-8.015909194946289062e+00,-7.978066921234130859e+00,-7.827654838562011719e+00,-7.839816570281982422e+00,-7.999199867248535156e+00,-7.956366062164306641e+00,-7.865471839904785156e+00,-7.997483730316162109e+00,-7.949677467346191406e+00,-7.805705547332763672e+00
