-9.275749206542968750e+00,-9.332413673400878906e+00,-1.007753086090087891e+01,-9.608252525329589844e+00,-9.914497375488281250e+00,-9.795743942260742188e+00,-9.889377593994140625e+00,-9.834613800048828125e+00,-9.696416854858398438e+00,-9.667847633361816406e+00,-8.843871116638183594e+00,-9.365292549133300781e+00,-9.590198516845703125e+00,-9.423866271972656250e+00,-9.464478492736816406e+00,-9.424257278442382812e+00,-9.362844467163085938e+00,-9.338645935058593750e+00,-9.255298614501953125e+00,-9.234756469726562500e+00,-9.209623336791992188e+00,-9.168653488159179688e+00,-8.537377357482910156e+00,-8.530519485473632812e+00,-8.539793968200683594e+00,-8.523394584655761719e+00,-8.129581451416015625e+00,-8.116528511047363281e+00,-8.113184928894042969e+00,-8.119464874267578125e+00,-8.794373512268066406e+00,-8.807394027709960938e+00,-8.719951629638671875e+00,-8.739602088928222656e+00,-8.677596092224121094e+00,-8.648727416992187500e+00,-8.631404876708984375e+00,-8.616478919982910156e+00,-8.596519470214843750e+00,-8.061307907104492188e+00,-8.502924919128417969e+00,-8.429725646972656250e+00,-8.398050308227539062e+00,-7.736458778381347656e+00,-8.349145889282226562e+00,-8.341267585754394531e+00,-8.377799034118652344e+00,-8.392820358276367188e+00,-7.449971199035644531e+00,-7.728218555450439453e+00,-8.178011894226074219e+00,-7.725378036499023438e+00,-7.723939418792724609e+00,-7.706327438354492188e+00,-7.720848083496093750e+00,-7.467073917388916016e+00,-7.631611824035644531e+00,nan,-7.478512287139892578e+00,-7.258340835571289062e+00,-7.482024669647216797e+00,-7.481071949005126953e+00,-7.478765487670898438e+00,-7.468790054321289062e+00,-7.464260101318359375e+00,-7.430542469024658203e+00,-7.265740871429443359e+00,-7.265379428863525391e+00,-7.361732482910156250e+00,-7.338194847106933594e+00,-7.275616645812988281e+00,-7.279113769531250000e+00,-7.278284549713134766e+00,-7.080283641815185547e+00,-7.279021739959716797e+00,-7.279046535491943359e+00,-7.278348922729492188e+00,-7.272032737731933594e+00,-7.291304111480712891e+00,-7.275911808013916016e+00,-7.273893356323242188e+00,-7.271703243255615234e+00,-7.235125541687011719e+00,-7.080970287322998047e+00,-7.078883171081542969e+00,-7.072856903076171875e+00,-7.069137573242187500e+00,-7.064220428466796875e+00,-7.057474613189697266e+00,-7.052445411682128906e+00,-7.045092105865478516e+00,-7.140556335449218750e+00,-7.136257648468017578e+00,-7.082984447479248047e+00,-7.123411178588867188e+00,-7.137731552124023438e+00,-7.158429145812988281e+00,-6.978295326232910156e+00,-7.051485538482666016e+00,-7.110284328460693359e+00,-7.071702957153320312e+00,-7.105199813842773438e+00,-7.102555751800537109e+00,-7.080540657043457031e+00,-7.028983592987060547e+00,-6.857347965240478516e+00,-6.969352722167968750e+00,-7.025654792785644531e+00,-7.049652099609375000e+00,-6.991231441497802734e+00,-7.057960510253906250e+00,-7.092874050140380859e+00,-7.085382938385009766e+00,-7.074498176574707031e+00,-7.061785697937011719e+00,-7.057405471801757812e+00,-7.096367835998535156e+00,-7.079945087432861328e+00,-7.072109222412109375e+00,-7.047593593597412109e+00,-7.037511348724365234e+00,-7.021161556243896484e+00,-7.006723403930664062e+00,-6.988780498504638672e+00,-6.974347591400146484e+00,-6.962148666381835938e+00,-6.937187671661376953e+00,-6.922960281372070312e+00,-6.908884525299072266e+00,-6.884606838226318359e+00,-6.869493007659912109e+00,-6.863836288452148438e+00,-7.012456417083740234e+00,-7.080646038055419922e+00,-7.066805362701416016e+00,-6.789391994476318359e+00,-6.766862869262695312e+00,nan,-6.422227859497070312e+00,-6.974194526672363281e+00,-6.688803672790527344e+00,-6.680307865142822266e+00,-6.900497913360595703e+00,-6.905024528503417969e+00,-6.911752223968505859e+00,-6.894354820251464844e+00,-6.928867816925048828e+00,-6.883752822875976562e+00,-6.839803695678710938e+00,-6.818598747253417969e+00,-6.846346855163574219e+00,-6.841121196746826172e+00,-6.862096786499023438e+00,-6.891414642333984375e+00,-6.880837440490722656e+00,-6.873089313507080078e+00,-6.889255523681640625e+00,-6.869120121002197266e+00,-6.683308124542236328e+00,-6.681087017059326172e+00,-6.757047653198242188e+00,-6.737060546875000000e+00,-6.779482364654541016e+00,-6.801698207855224609e+00,-6.814205169677734375e+00
-9.903019905090332031e+00,-9.725242614746093750e+00,-9.921552658081054688e+00,-9.726985931396484375e+00,-9.853494644165039062e+00,-9.809668540954589844e+00,-9.711265563964843750e+00,-9.747672080993652344e+00,-9.719989776611328125e+00,-9.648056030273437500e+00,-8.675048828125000000e+00,-8.672350883483886719e+00,-8.850431442260742188e+00,-9.245364189147949219e+00,-9.200257301330566406e+00,-9.359048843383789062e+00,-9.320281028747558594e+00,-9.287090301513671875e+00,-8.611325263977050781e+00,-9.179283142089843750e+00,-9.191283226013183594e+00,-9.073963165283203125e+00,-9.088107109069824219e+00,-9.072739601135253906e+00,-9.015829086303710938e+00,-8.892725944519042969e+00,-8.136530876159667969e+00,-8.141354560852050781e+00,-8.128973960876464844e+00,-8.673436164855957031e+00,-8.769139289855957031e+00,-8.578387260437011719e+00,-8.673663139343261719e+00,-8.702518463134765625e+00,-8.668370246887207031e+00,-8.097153663635253906e+00,-8.628816604614257812e+00,-8.567905426025390625e+00,-8.548384666442871094e+00,-8.458107948303222656e+00,-8.424323081970214844e+00,-8.383801460266113281e+00,-8.363560676574707031e+00,-8.356450080871582031e+00,-8.342296600341796875e+00,-8.356722831726074219e+00,-8.377315521240234375e+00,-8.382794380187988281e+00,-8.173611640930175781e+00,-8.159964561462402344e+00,-7.468221664428710938e+00,-8.088178634643554688e+00,-8.113085746765136719e+00,-8.101824760437011719e+00,-7.479714870452880859e+00,-7.481605529785156250e+00,-7.592196941375732422e+00,-7.484111785888671875e+00,-7.651889801025390625e+00,-7.240922927856445312e+00,-7.488353252410888672e+00,-7.485588073730468750e+00,-7.481260299682617188e+00,-7.473576545715332031e+00,-7.449461460113525391e+00,-7.310928821563720703e+00,-7.268883228302001953e+00,-7.273269653320312500e+00,-7.366883277893066406e+00,-7.277627944946289062e+00,-7.280632972717285156e+00,-7.280139446258544922e+00,-7.279680728912353516e+00,-7.077817916870117188e+00,-7.281826496124267578e+00,-7.281634807586669922e+00,-7.261647701263427734e+00,-7.207893848419189453e+00,-7.278990268707275391e+00,-7.276747703552246094e+00,-7.275899410247802734e+00,-7.224920749664306641e+00,-7.096541404724121094e+00,-7.076144218444824219e+00,-7.072362899780273438e+00,-7.068815231323242188e+00,-7.063718318939208984e+00,-7.059591770172119141e+00,-6.870927333831787109e+00,-7.045977115631103516e+00,-7.041347026824951172e+00,-7.130378246307373047e+00,-6.833219051361083984e+00,-7.086917877197265625e+00,-7.008352279663085938e+00,-7.104495525360107422e+00,-7.100995063781738281e+00,-6.991590023040771484e+00,-7.098653316497802734e+00,-7.093920230865478516e+00,-7.045218467712402344e+00,-6.907346725463867188e+00,-6.898462772369384766e+00,-7.072228431701660156e+00,-7.018829822540283203e+00,-6.946600914001464844e+00,-6.926309585571289062e+00,-7.062345981597900391e+00,nan,nan,-6.993910789489746094e+00,-7.060540676116943359e+00,-7.088595390319824219e+00,-7.070794582366943359e+00,-7.080578327178955078e+00,-7.051504611968994141e+00,-7.046955108642578125e+00,-7.088387966156005859e+00,-7.074161529541015625e+00,-7.056318759918212891e+00,-7.030399322509765625e+00,-7.007058620452880859e+00,-6.977080821990966797e+00,-6.993246078491210938e+00,-6.961466789245605469e+00,-6.964764595031738281e+00,-6.951172351837158203e+00,-6.938539028167724609e+00,-6.915060520172119141e+00,-6.864861488342285156e+00,-6.870318412780761719e+00,-6.863927841186523438e+00,-6.844303131103515625e+00,-6.828135013580322266e+00,-7.032704830169677734e+00,-7.011460781097412109e+00,-6.987216472625732422e+00,-6.960375785827636719e+00,-6.743814945220947266e+00,-6.935991764068603516e+00,-6.948313236236572266e+00,-6.904813766479492188e+00,-6.840772628784179688e+00,-6.864113807678222656e+00,-6.870417594909667969e+00,-6.885471820831298828e+00,-6.879003524780273438e+00,-6.925480842590332031e+00,-6.910844802856445312e+00,-6.799554347991943359e+00,-6.779871463775634766e+00,-6.756297111511230469e+00,-6.803113460540771484e+00,-6.840872764587402344e+00,-6.810285091400146484e+00,-6.826084136962890625e+00,-6.839729309082031250e+00,-6.846247673034667969e+00,-6.847299098968505859e+00,-6.769623756408691406e+00,-6.745055675506591797e+00,-6.651326179504394531e+00,-6.745685577392578125e+00,-6.740256786346435547e+00,-6.667298793792724609e+00
-9.421207427978515625e+00,-9.752729415893554688e+00,-9.882176399230957031e+00,-9.814216613769531250e+00,-9.837413787841796875e+00,-9.804260253906250000e+00,-9.675253868103027344e+00,-9.619482040405273438e+00,-9.648893356323242188e+00,-9.612413406372070312e+00,-9.326027870178222656e+00,-8.685227394104003906e+00,-8.680244445800781250e+00,-8.677740097045898438e+00,-8.657274246215820312e+00,-9.199588775634765625e+00,-9.290556907653808594e+00,-8.622519493103027344e+00,-8.621258735656738281e+00,-8.617083549499511719e+00,-8.607905387878417969e+00,-8.587300300598144531e+00,-8.180918693542480469e+00,-9.026401519775390625e+00,-8.256237030029296875e+00,-8.171648025512695312e+00,-8.168848037719726562e+00,-8.161169052124023438e+00,-8.156769752502441406e+00,-8.156739234924316406e+00,-7.773259162902832031e+00,-8.140331268310546875e+00,-8.131224632263183594e+00,-8.124276161193847656e+00,-8.621758460998535156e+00,-8.609281539916992188e+00,-8.574075698852539062e+00,-8.489865303039550781e+00,-8.460971832275390625e+00,-8.414482116699218750e+00,-8.375010490417480469e+00,-8.349622726440429688e+00,-8.335870742797851562e+00,-8.322399139404296875e+00,-8.338799476623535156e+00,-8.364817619323730469e+00,-8.384993553161621094e+00,-8.154217720031738281e+00,-7.185573101043701172e+00,-7.479229927062988281e+00,-7.473683357238769531e+00,-8.174512863159179688e+00,-7.208704471588134766e+00,-7.488415718078613281e+00,-7.221805095672607422e+00,-7.227094650268554688e+00,-7.490102291107177734e+00,-7.604656219482421875e+00,-7.490073680877685547e+00,-7.491698265075683594e+00,-7.503960609436035156e+00,-7.452212333679199219e+00,-7.437897682189941406e+00,-7.435363292694091797e+00,-7.399826526641845703e+00,-7.042125225067138672e+00,-7.045355319976806641e+00,-7.050015449523925781e+00,-7.277252674102783203e+00,-7.280849456787109375e+00,-7.282565593719482422e+00,-7.067773342132568359e+00,-6.866534233093261719e+00,-7.075152873992919922e+00,-7.090522766113281250e+00,-7.255187511444091797e+00,-7.169976711273193359e+00,nan,-7.279630661010742188e+00,-7.080394744873046875e+00,-7.158860683441162109e+00,-7.186952114105224609e+00,-7.082363605499267578e+00,-6.879713058471679688e+00,-7.068027973175048828e+00,-7.065994262695312500e+00,-6.868349075317382812e+00,-7.054362773895263672e+00,-7.049126148223876953e+00,-7.042392730712890625e+00,-7.048192501068115234e+00,-7.025683403015136719e+00,-6.829934120178222656e+00,-7.013299942016601562e+00,-6.998461246490478516e+00,-7.077461719512939453e+00,-7.067662715911865234e+00,-7.062735557556152344e+00,-7.050519943237304688e+00,-7.035367965698242188e+00,-7.026759624481201172e+00,-6.906089305877685547e+00,-6.898358821868896484e+00,-6.893906116485595703e+00,-7.172561645507812500e+00,-6.954535484313964844e+00,-6.931860446929931641e+00,-7.021537303924560547e+00,-7.031154155731201172e+00,nan,-6.979997158050537109e+00,-6.984812736511230469e+00,-7.069128513336181641e+00,-7.054728984832763672e+00,-7.012180328369140625e+00,-7.034741878509521484e+00,-7.042425155639648438e+00,-7.035012245178222656e+00,-7.021766185760498047e+00,-7.006084442138671875e+00,-6.973940372467041016e+00,-6.784871101379394531e+00,-6.905710697174072266e+00,-6.931759834289550781e+00,-6.930885791778564453e+00,-6.934104442596435547e+00,-6.907193183898925781e+00,-6.882078647613525391e+00,-6.904189586639404297e+00,-6.820644378662109375e+00,-6.858098983764648438e+00,-6.812807083129882812e+00,-6.801392078399658203e+00,-7.033012390136718750e+00,-6.986495971679687500e+00,-7.004262447357177734e+00,-6.997581481933593750e+00,-6.969061374664306641e+00,-6.949447154998779297e+00,-6.930132865905761719e+00,-6.908916473388671875e+00,-6.893519878387451172e+00,-6.848810195922851562e+00,-6.797953605651855469e+00,-6.655187129974365234e+00,-6.634581089019775391e+00,-6.839497566223144531e+00,-6.867494583129882812e+00,-6.855374813079833984e+00,-6.841562271118164062e+00,-6.794419288635253906e+00,-6.771556854248046875e+00,-6.697416305541992188e+00,-6.732851028442382812e+00,-6.785574913024902344e+00,-6.781742095947265625e+00,-6.790592193603515625e+00,-6.773381233215332031e+00,-6.784395694732666016e+00,-6.732011795043945312e+00,-6.650722503662109375e+00,-6.703235149383544922e+00,-6.680066585540771484e+00,-6.677654266357421875e+00,-6.785724163055419922e+00
-9.852866172790527344e+00,-9.883043289184570312e+00,-9.810794830322265625e+00,-9.742882728576660156e+00,-9.768218994140625000e+00,-9.707579612731933594e+00,-9.654917716979980469e+00,-9.588503837585449219e+00,-9.593285560607910156e+00,-9.160179138183593750e+00,-9.275482177734375000e+00,-9.281283378601074219e+00,-8.697981834411621094e+00,-8.696639060974121094e+00,-8.860116958618164062e+00,-8.764051437377929688e+00,-9.186299324035644531e+00,-8.658794403076171875e+00,-8.640123367309570312e+00,-9.054752349853515625e+00,-8.890585899353027344e+00,-9.041917800903320312e+00,-8.376502037048339844e+00,-8.924144744873046875e+00,-8.196055412292480469e+00,-8.171563148498535156e+00,-8.177382469177246094e+00,-8.169919013977050781e+00,-8.165463447570800781e+00,-7.792231559753417969e+00,-8.152732849121093750e+00,-8.487602233886718750e+00,-8.657772064208984375e+00,-8.620580673217773438e+00,-8.571206092834472656e+00,-8.533489227294921875e+00,-8.506071090698242188e+00,-8.450394630432128906e+00,-8.391051292419433594e+00,-8.370454788208007812e+00,-8.344303131103515625e+00,-8.343855857849121094e+00,-8.327303886413574219e+00,-8.332141876220703125e+00,-8.348015785217285156e+00,-8.382481575012207031e+00,-7.476759910583496094e+00,-8.102558135986328125e+00,-7.193802833557128906e+00,-7.488909244537353516e+00,-7.488995552062988281e+00,-7.208977699279785156e+00,-7.214830875396728516e+00,-7.218592166900634766e+00,-7.227993965148925781e+00,-7.230783939361572266e+00,-7.236925601959228516e+00,-7.439952850341796875e+00,-7.248807430267333984e+00,-7.340813636779785156e+00,-7.399287223815917969e+00,-7.479171752929687500e+00,-7.379487514495849609e+00,-7.358157634735107422e+00,-7.281913757324218750e+00,-7.275029659271240234e+00,-6.812995910644531250e+00,-7.276659965515136719e+00,-7.279898643493652344e+00,-7.281444549560546875e+00,-7.094940662384033203e+00,-7.089059352874755859e+00,-6.852647781372070312e+00,-7.071750164031982422e+00,-7.084457874298095703e+00,-7.151904106140136719e+00,-6.864413261413574219e+00,-7.131505012512207031e+00,-7.077119350433349609e+00,-7.077025890350341797e+00,-7.145801544189453125e+00,-6.662932395935058594e+00,-7.069857597351074219e+00,-6.873414516448974609e+00,-6.865424633026123047e+00,-6.864607810974121094e+00,-6.860308647155761719e+00,-7.048460960388183594e+00,-7.045601367950439453e+00,-7.034696102142333984e+00,-7.032877445220947266e+00,-7.023302078247070312e+00,-7.008648872375488281e+00,-7.003238677978515625e+00,-6.991743087768554688e+00,-6.983855247497558594e+00,-6.998380661010742188e+00,-7.061657905578613281e+00,-7.023620605468750000e+00,-7.019685745239257812e+00,-6.915134429931640625e+00,-7.007032871246337891e+00,-6.897202491760253906e+00,-6.880639076232910156e+00,-7.039076328277587891e+00,-6.970804691314697266e+00,-6.960723876953125000e+00,-6.906204700469970703e+00,-7.169322490692138672e+00,-7.020067214965820312e+00,-6.976939201354980469e+00,-6.973878383636474609e+00,-6.960832118988037109e+00,-7.023400306701660156e+00,-7.000701904296875000e+00,-6.984960556030273438e+00,-6.964533329010009766e+00,-7.036427974700927734e+00,-7.023674964904785156e+00,-7.000505447387695312e+00,-6.914083003997802734e+00,nan,-6.777429580688476562e+00,-6.885927200317382812e+00,-6.883394718170166016e+00,-6.882113933563232422e+00,-6.882711887359619141e+00,-6.857625484466552734e+00,-6.863915920257568359e+00,-6.811530113220214844e+00,-6.966011524200439453e+00,-6.935419082641601562e+00,-6.943483352661132812e+00,-6.859633922576904297e+00,nan,-6.955096244812011719e+00,-6.954108715057373047e+00,-6.943269729614257812e+00,-6.919500350952148438e+00,-6.899217128753662109e+00,-6.867612838745117188e+00,-6.865850448608398438e+00,-6.836318969726562500e+00,-6.825015068054199219e+00,-6.740855693817138672e+00,-6.640316486358642578e+00,-6.626889705657958984e+00,-6.814533710479736328e+00,-6.583890438079833984e+00,-6.571042060852050781e+00,-6.813234806060791016e+00,-6.781553268432617188e+00,-6.736170768737792969e+00,-6.677445411682128906e+00,-6.624197959899902344e+00,-6.661119461059570312e+00,-6.724907875061035156e+00,-6.730717182159423828e+00,-6.601750850677490234e+00,-6.544897079467773438e+00,-6.687983989715576172e+00,-6.765882015228271484e+00,-6.744172573089599609e+00,-6.711310863494873047e+00,-6.645204544067382812e+00
-9.043045043945312500e+00,-9.334775924682617188e+00,-9.410881042480468750e+00,-9.676475524902343750e+00,-9.625061035156250000e+00,-9.650669097900390625e+00,-9.582358360290527344e+00,-9.222024917602539062e+00,-9.180542945861816406e+00,-8.946789741516113281e+00,-8.742777824401855469e+00,-8.737861633300781250e+00,-8.735963821411132812e+00,-8.721362113952636719e+00,-8.711441993713378906e+00,-8.695526123046875000e+00,-8.687215805053710938e+00,-8.669825553894042969e+00,-8.237390518188476562e+00,-8.909508705139160156e+00,-9.008213043212890625e+00,-9.010310173034667969e+00,-8.967133522033691406e+00,-8.198592185974121094e+00,-8.872006416320800781e+00,-8.192793846130371094e+00,-8.769240379333496094e+00,-8.728801727294921875e+00,-7.801988601684570312e+00,-7.804303646087646484e+00,-7.806701660156250000e+00,-8.619954109191894531e+00,-8.603385925292968750e+00,-8.560702323913574219e+00,-8.505166053771972656e+00,-8.501481056213378906e+00,-8.427902221679687500e+00,-8.380819320678710938e+00,-8.361968040466308594e+00,-8.331766128540039062e+00,-8.320387840270996094e+00,-8.320917129516601562e+00,-8.329976081848144531e+00,-8.354109764099121094e+00,-8.365912437438964844e+00,-8.120141029357910156e+00,-8.108599662780761719e+00,-8.043145179748535156e+00,-7.491260528564453125e+00,-7.492103099822998047e+00,-7.495841979980468750e+00,-7.494363784790039062e+00,-7.222355365753173828e+00,-7.226721763610839844e+00,-7.230122089385986328e+00,-6.968575477600097656e+00,-6.972703933715820312e+00,-6.985641479492187500e+00,-7.249590873718261719e+00,-7.424298763275146484e+00,-7.761110305786132812e+00,-7.332814693450927734e+00,-7.342144489288330078e+00,-7.272935390472412109e+00,-7.275057792663574219e+00,-7.276114940643310547e+00,-7.048657894134521484e+00,-7.048485279083251953e+00,-7.054181575775146484e+00,-7.057167530059814453e+00,-7.069122314453125000e+00,-7.069070339202880859e+00,-7.067425727844238281e+00,-6.852200508117675781e+00,-7.071423053741455078e+00,-7.071982860565185547e+00,-7.073729515075683594e+00,-7.072954654693603516e+00,-6.861852169036865234e+00,-7.072232246398925781e+00,-7.070609569549560547e+00,-6.863979339599609375e+00,-7.069941997528076172e+00,-6.863382339477539062e+00,-6.859591960906982422e+00,-6.853619575500488281e+00,-6.851068019866943359e+00,-7.043786048889160156e+00,-7.042968750000000000e+00,-7.030691146850585938e+00,-7.023235797882080078e+00,-7.014506340026855469e+00,-7.010138988494873047e+00,-6.998852252960205078e+00,-6.990111351013183594e+00,-6.981662750244140625e+00,-6.967212677001953125e+00,-6.997404098510742188e+00,-6.983426570892333984e+00,-6.930305480957031250e+00,-6.914647102355957031e+00,-6.903335094451904297e+00,-6.674852371215820312e+00,-6.877856254577636719e+00,-6.864956378936767578e+00,-6.843464851379394531e+00,-6.976587295532226562e+00,-7.047973632812500000e+00,-6.998188495635986328e+00,-6.997126102447509766e+00,-6.994803428649902344e+00,-6.968348979949951172e+00,-6.956841945648193359e+00,-6.957268238067626953e+00,-7.017882347106933594e+00,-6.951650142669677734e+00,-6.949233531951904297e+00,-6.940556049346923828e+00,-6.946912765502929688e+00,-6.954730033874511719e+00,-6.961808681488037109e+00,-6.918259143829345703e+00,-6.777548789978027344e+00,-6.859141349792480469e+00,-6.825389862060546875e+00,-6.839426517486572266e+00,-6.832181930541992188e+00,-6.970467090606689453e+00,-6.826653957366943359e+00,-6.833694458007812500e+00,-6.944821357727050781e+00,-6.927177429199218750e+00,-6.858278751373291016e+00,-6.895289421081542969e+00,-6.876608848571777344e+00,nan,-6.923597812652587891e+00,-6.927130222320556641e+00,-6.922109603881835938e+00,-6.911874771118164062e+00,-6.887730121612548828e+00,-6.858040332794189453e+00,-6.836854457855224609e+00,-6.794579505920410156e+00,-6.763068675994873047e+00,-6.699929237365722656e+00,-6.679871559143066406e+00,-6.731081962585449219e+00,-6.591199874877929688e+00,-6.584734439849853516e+00,-6.744889259338378906e+00,-6.744608402252197266e+00,-6.722662925720214844e+00,-6.526970386505126953e+00,-6.635893821716308594e+00,-6.598096370697021484e+00,-6.566060066223144531e+00,-6.610981941223144531e+00,-6.675522804260253906e+00,-6.647583961486816406e+00,-6.623032569885253906e+00,-6.666678428649902344e+00,-6.711749076843261719e+00,-6.664828777313232422e+00,-6.630369186401367188e+00
-9.191369056701660156e+00,-9.113191604614257812e+00,-9.455690383911132812e+00,-9.648939132690429688e+00,-9.580041885375976562e+00,-9.489898681640625000e+00,-8.397537231445312500e+00,-9.154433250427246094e+00,-9.023532867431640625e+00,-8.391906738281250000e+00,-8.751532554626464844e+00,-8.739739418029785156e+00,-8.751290321350097656e+00,-8.284045219421386719e+00,-8.713830947875976562e+00,-8.546545028686523438e+00,-8.934832572937011719e+00,-8.974883079528808594e+00,-9.033703804016113281e+00,-9.014536857604980469e+00,-8.974205017089843750e+00,-8.942584991455078125e+00,-8.906912803649902344e+00,-8.116340637207031250e+00,-8.713233947753906250e+00,-8.767408370971679688e+00,-8.713633537292480469e+00,-8.682485580444335938e+00,-8.627454757690429688e+00,-7.812514305114746094e+00,-8.602396965026855469e+00,-8.575876235961914062e+00,-8.539057731628417969e+00,-8.484721183776855469e+00,-8.437689781188964844e+00,-8.417296409606933594e+00,-8.389770507812500000e+00,-8.365144729614257812e+00,-8.332477569580078125e+00,-8.309370040893554688e+00,-8.306720733642578125e+00,-8.338415145874023438e+00,-8.338641166687011719e+00,-8.103289604187011719e+00,-8.124285697937011719e+00,-8.084119796752929688e+00,-7.523694038391113281e+00,-7.540279388427734375e+00,-7.507792472839355469e+00,-7.503042221069335938e+00,-7.938487052917480469e+00,-7.225413799285888672e+00,-7.226953983306884766e+00,-7.233579158782958984e+00,-7.242202281951904297e+00,-6.967490196228027344e+00,-7.249496459960937500e+00,-7.251985549926757812e+00,-7.382115364074707031e+00,-7.801138401031494141e+00,-7.328184127807617188e+00,-7.269706726074218750e+00,-7.272984504699707031e+00,-7.272804260253906250e+00,-7.275828838348388672e+00,-7.059880256652832031e+00,-7.044472217559814453e+00,-7.046236515045166016e+00,-7.051950931549072266e+00,-7.055422782897949219e+00,-7.058813571929931641e+00,-7.062741756439208984e+00,-7.058312416076660156e+00,-7.068073272705078125e+00,-7.068361282348632812e+00,-7.071225166320800781e+00,-6.850720405578613281e+00,-7.070357322692871094e+00,-7.070076942443847656e+00,-7.069750785827636719e+00,-7.069473743438720703e+00,-6.856574535369873047e+00,-6.972985267639160156e+00,-6.848762989044189453e+00,-6.855767250061035156e+00,-6.845821857452392578e+00,-6.837475776672363281e+00,-6.843346595764160156e+00,-7.037547588348388672e+00,-7.021281719207763672e+00,-7.018086433410644531e+00,-7.000965118408203125e+00,-7.001175880432128906e+00,-6.995213508605957031e+00,-6.985443115234375000e+00,-6.973392963409423828e+00,-6.963747501373291016e+00,-6.953470706939697266e+00,nan,-6.958726406097412109e+00,-6.944525718688964844e+00,-6.904488563537597656e+00,-6.896296977996826172e+00,-6.971719741821289062e+00,-6.942085266113281250e+00,nan,-6.835283279418945312e+00,nan,-6.984286785125732422e+00,-6.834228992462158203e+00,-6.988928318023681641e+00,-6.977822303771972656e+00,-6.956676483154296875e+00,-6.944952011108398438e+00,-6.933804512023925781e+00,-6.938933849334716797e+00,-6.894800186157226562e+00,-6.901472568511962891e+00,-6.885403156280517578e+00,-6.932459831237792969e+00,-6.923562049865722656e+00,-6.914896965026855469e+00,-6.810821533203125000e+00,-6.860328674316406250e+00,-6.824290275573730469e+00,-6.722197532653808594e+00,-6.830750465393066406e+00,-6.835466384887695312e+00,nan,-6.795044898986816406e+00,-6.760948181152343750e+00,-6.756357192993164062e+00,-6.897370815277099609e+00,-6.879329681396484375e+00,-6.823336124420166016e+00,-6.525405883789062500e+00,-6.888927936553955078e+00,-6.865932464599609375e+00,-6.894085884094238281e+00,nan,-6.864403247833251953e+00,-6.834796428680419922e+00,-6.809101581573486328e+00,-6.793664455413818359e+00,-6.778818607330322266e+00,-6.702999114990234375e+00,-6.658460617065429688e+00,-6.630514144897460938e+00,-6.689787864685058594e+00,-6.695357799530029297e+00,-6.698021411895751953e+00,-6.705372810363769531e+00,-6.711634159088134766e+00,-6.579854965209960938e+00,-6.508206367492675781e+00,-6.567443847656250000e+00,-6.525754928588867188e+00,-6.478110313415527344e+00,-6.482296943664550781e+00,-6.653246879577636719e+00,-6.614593982696533203e+00,-6.655818939208984375e+00,-6.683515071868896484e+00,-6.752882480621337891e+00,-6.630596160888671875e+00
-9.510999679565429688e+00,-9.637845039367675781e+00,-9.654044151306152344e+00,-9.591502189636230469e+00,-9.141195297241210938e+00,-8.635972976684570312e+00,-8.741521835327148438e+00,-8.539591789245605469e+00,-8.748733520507812500e+00,-9.412322998046875000e+00,-8.767789840698242188e+00,-8.308695793151855469e+00,-8.293601036071777344e+00,-8.300311088562011719e+00,-8.296879768371582031e+00,-8.872577667236328125e+00,-8.884914398193359375e+00,-9.017904281616210938e+00,-8.982744216918945312e+00,-8.937068939208984375e+00,-8.939382553100585938e+00,-8.887081146240234375e+00,-8.816024780273437500e+00,-8.787858009338378906e+00,-8.727675437927246094e+00,-8.668789863586425781e+00,-8.640475273132324219e+00,-8.628493309020996094e+00,-8.596495628356933594e+00,-8.589446067810058594e+00,-8.551408767700195312e+00,-8.523840904235839844e+00,-8.497394561767578125e+00,-8.459812164306640625e+00,-8.376884460449218750e+00,-8.377632141113281250e+00,-8.325852394104003906e+00,-8.315722465515136719e+00,-8.288310050964355469e+00,-8.307222366333007812e+00,-8.313305854797363281e+00,-8.361681938171386719e+00,-7.233973979949951172e+00,-7.178436279296875000e+00,nan,-7.577700138092041016e+00,-7.546897888183593750e+00,-8.010173797607421875e+00,-7.956556320190429688e+00,-7.942009925842285156e+00,-7.894148349761962891e+00,-7.857617855072021484e+00,-7.760583877563476562e+00,-7.235342025756835938e+00,-7.245597839355468750e+00,-7.250225543975830078e+00,-7.251316070556640625e+00,-7.258705139160156250e+00,-7.780796051025390625e+00,-7.307616710662841797e+00,-7.269212245941162109e+00,-7.269318103790283203e+00,-7.258362293243408203e+00,-7.207708835601806641e+00,-7.054080963134765625e+00,-7.036848545074462891e+00,-7.042688369750976562e+00,-7.044727325439453125e+00,-7.049693107604980469e+00,-7.053163528442382812e+00,-7.057785034179687500e+00,-7.058669090270996094e+00,-7.042208671569824219e+00,-6.837757110595703125e+00,-6.839233398437500000e+00,-6.843764305114746094e+00,-6.848448753356933594e+00,-6.875257015228271484e+00,-6.848546981811523438e+00,-6.866296768188476562e+00,-6.853496551513671875e+00,-6.875828266143798828e+00,-6.971860408782958984e+00,-6.838791847229003906e+00,-6.867180347442626953e+00,-6.835217952728271484e+00,-6.826080322265625000e+00,-6.822065830230712891e+00,-6.902101993560791016e+00,-6.825827121734619141e+00,-7.016426086425781250e+00,-6.798139572143554688e+00,-6.999238014221191406e+00,-6.988799571990966797e+00,-6.982543468475341797e+00,-6.969361782073974609e+00,-6.960896968841552734e+00,-6.948501110076904297e+00,-6.933745861053466797e+00,-6.922985076904296875e+00,-6.914340972900390625e+00,-6.899113178253173828e+00,-6.957726001739501953e+00,-6.947785854339599609e+00,-6.940673828125000000e+00,-6.895294189453125000e+00,-6.826111793518066406e+00,-6.944609165191650391e+00,-6.905071735382080078e+00,-6.902187824249267578e+00,-6.944350242614746094e+00,-6.979223251342773438e+00,-6.953481197357177734e+00,-6.946559429168701172e+00,-6.928079128265380859e+00,-6.909651279449462891e+00,-6.894536495208740234e+00,-6.881122112274169922e+00,-6.864328861236572266e+00,-6.910933971405029297e+00,-6.825559616088867188e+00,-6.882917881011962891e+00,-6.865356922149658203e+00,-6.854808807373046875e+00,-6.797994136810302734e+00,-6.754605293273925781e+00,-6.750060081481933594e+00,-6.803702831268310547e+00,-6.784457206726074219e+00,-6.701039791107177734e+00,nan,-6.615792751312255859e+00,-6.613322257995605469e+00,-6.868811130523681641e+00,-6.558273315429687500e+00,-6.532487392425537109e+00,-6.642121791839599609e+00,-6.843474388122558594e+00,-6.851029396057128906e+00,-6.852112293243408203e+00,-6.859622955322265625e+00,-6.834012508392333984e+00,-6.810529708862304688e+00,-6.772656440734863281e+00,-6.754535198211669922e+00,-6.721657752990722656e+00,-6.695809841156005859e+00,-6.635005950927734375e+00,-6.604517936706542969e+00,-6.651699542999267578e+00,-6.668744564056396484e+00,-6.669844150543212891e+00,-6.658398628234863281e+00,-6.626638889312744141e+00,-6.690409183502197266e+00,-6.619853973388671875e+00,-6.541389465332031250e+00,-6.290785312652587891e+00,-6.255205631256103516e+00,-6.391806125640869141e+00,-6.583455085754394531e+00,-6.488595485687255859e+00,-6.179482936859130859e+00,-6.547847747802734375e+00,-6.621701717376708984e+00
-9.388980865478515625e+00,-9.168918609619140625e+00,-9.556162834167480469e+00,-9.474796295166015625e+00,-8.777019500732421875e+00,-8.655682563781738281e+00,-8.456048011779785156e+00,-8.351772308349609375e+00,-9.405462265014648438e+00,-9.365803718566894531e+00,-8.321735382080078125e+00,-9.177677154541015625e+00,-9.175154685974121094e+00,-9.110713958740234375e+00,-8.678005218505859375e+00,-8.996765136718750000e+00,-9.003602027893066406e+00,-9.012224197387695312e+00,-8.984348297119140625e+00,-8.939586639404296875e+00,-8.881246566772460938e+00,-8.767879486083984375e+00,-8.732477188110351562e+00,-8.702320098876953125e+00,-8.631429672241210938e+00,-8.629781723022460938e+00,-8.623677253723144531e+00,-8.600078582763671875e+00,-8.563073158264160156e+00,-8.524452209472656250e+00,-8.528056144714355469e+00,-8.474141120910644531e+00,-8.349851608276367188e+00,-7.481633663177490234e+00,-7.485884666442871094e+00,-7.483716964721679688e+00,-7.493960857391357422e+00,-7.496938705444335938e+00,-7.495373725891113281e+00,-7.494722843170166016e+00,-8.322380065917968750e+00,-8.289327621459960938e+00,-7.510731220245361328e+00,-7.507493019104003906e+00,-7.190521240234375000e+00,-7.514502525329589844e+00,-7.515763282775878906e+00,-7.565731525421142578e+00,-7.869376659393310547e+00,-7.885201930999755859e+00,-7.790928840637207031e+00,-7.752965927124023438e+00,-7.751233577728271484e+00,-7.726279735565185547e+00,-7.248585224151611328e+00,-7.252039432525634766e+00,-7.257783412933349609e+00,-7.261761665344238281e+00,-7.263954162597656250e+00,-7.256536960601806641e+00,-7.267666339874267578e+00,-7.210274219512939453e+00,-7.182852268218994141e+00,-6.765685081481933594e+00,-7.030513286590576172e+00,-7.035237789154052734e+00,-6.796912670135498047e+00,-7.017189502716064453e+00,-7.046310901641845703e+00,-7.046369552612304688e+00,-7.054638385772705078e+00,-7.053401470184326172e+00,-7.042888641357421875e+00,-6.829977035522460938e+00,-6.831304550170898438e+00,-6.968954086303710938e+00,-6.948053359985351562e+00,-6.846891403198242188e+00,-6.965233802795410156e+00,-6.837310791015625000e+00,-6.836568355560302734e+00,-6.889151096343994141e+00,-6.898350238800048828e+00,-6.839749336242675781e+00,-6.981858730316162109e+00,-6.823228836059570312e+00,-6.820646286010742188e+00,-6.814031124114990234e+00,-6.808135032653808594e+00,-6.814328193664550781e+00,-6.836782455444335938e+00,-6.791504383087158203e+00,-6.777406215667724609e+00,-6.770717144012451172e+00,-6.978512763977050781e+00,-6.517825126647949219e+00,-6.732511520385742188e+00,-6.496697425842285156e+00,-6.932265281677246094e+00,-6.915882110595703125e+00,-6.905830383300781250e+00,-6.899400711059570312e+00,-7.198825836181640625e+00,-6.864837169647216797e+00,-6.928613185882568359e+00,-6.922006130218505859e+00,-6.813253402709960938e+00,-6.809436798095703125e+00,-6.834256172180175781e+00,-7.107560634613037109e+00,-6.913935184478759766e+00,-6.884486675262451172e+00,-6.929738044738769531e+00,-6.924755573272705078e+00,-6.921181678771972656e+00,-6.842590808868408203e+00,-6.890914916992187500e+00,-6.883808135986328125e+00,-6.863287925720214844e+00,-6.849630832672119141e+00,-6.826894760131835938e+00,-6.803272724151611328e+00,-6.800680160522460938e+00,-6.779304027557373047e+00,-6.813540458679199219e+00,-6.797478675842285156e+00,-6.728849411010742188e+00,-6.754099369049072266e+00,-6.679829120635986328e+00,-6.654124259948730469e+00,-6.641554832458496094e+00,-6.614768028259277344e+00,-6.596221923828125000e+00,-6.853043079376220703e+00,-6.554834365844726562e+00,-6.827601432800292969e+00,-6.796645641326904297e+00,-6.786505222320556641e+00,-6.800457477569580078e+00,-6.840528011322021484e+00,-6.821748256683349609e+00,-6.812373161315917969e+00,-6.819785594940185547e+00,-6.796075344085693359e+00,-6.717568874359130859e+00,-6.706306457519531250e+00,-6.686742782592773438e+00,-6.669739723205566406e+00,-6.588215351104736328e+00,-6.588728904724121094e+00,-6.626626014709472656e+00,-6.623016834259033203e+00,-6.622460365295410156e+00,-6.650957584381103516e+00,-6.646815299987792969e+00,-6.647715568542480469e+00,-6.603090286254882812e+00,-6.512603759765625000e+00,-6.357299327850341797e+00,-6.239183425903320312e+00,-6.543545722961425781e+00,-6.540175914764404297e+00,-6.438282012939453125e+00,-6.141976356506347656e+00,-6.572033405303955078e+00
-9.213696479797363281e+00,-9.540031433105468750e+00,-9.467629432678222656e+00,-9.405788421630859375e+00,-8.374293327331542969e+00,-8.365413665771484375e+00,-8.358222007751464844e+00,-8.355952262878417969e+00,-9.244887351989746094e+00,-9.260509490966796875e+00,-9.176917076110839844e+00,-9.101954460144042969e+00,-9.046873092651367188e+00,-9.033466339111328125e+00,-8.087561607360839844e+00,-9.028671264648437500e+00,-9.006904602050781250e+00,-8.935391426086425781e+00,-8.858191490173339844e+00,-8.772333145141601562e+00,-8.748814582824707031e+00,-8.710667610168457031e+00,-8.671613693237304688e+00,-8.608180999755859375e+00,-8.556494712829589844e+00,-8.577187538146972656e+00,-8.570404052734375000e+00,-8.538847923278808594e+00,-8.526448249816894531e+00,-8.496732711791992188e+00,-7.476105213165283203e+00,-8.425658226013183594e+00,-8.390167236328125000e+00,-7.488761901855468750e+00,-7.491509914398193359e+00,-8.222724914550781250e+00,-7.500920772552490234e+00,-8.249911308288574219e+00,-8.301191329956054688e+00,-7.507551670074462891e+00,-7.510030269622802734e+00,-7.519214630126953125e+00,-7.517735481262207031e+00,-7.189152240753173828e+00,-7.519124031066894531e+00,-7.995241641998291016e+00,-7.957041263580322266e+00,-7.887582778930664062e+00,-7.843073844909667969e+00,-7.799146652221679688e+00,-7.734250068664550781e+00,-7.651188373565673828e+00,-7.245990276336669922e+00,-7.245733737945556641e+00,-7.250210762023925781e+00,-7.256797790527343750e+00,-6.978617668151855469e+00,-7.255465984344482422e+00,-7.188005447387695312e+00,-7.003274440765380859e+00,-7.007485389709472656e+00,-7.143949508666992188e+00,-7.150085926055908203e+00,-7.025809288024902344e+00,-7.030065059661865234e+00,-7.031439781188964844e+00,-6.785783290863037109e+00,-6.805447101593017578e+00,-6.799224853515625000e+00,-7.002917766571044922e+00,-7.037187099456787109e+00,-7.006989479064941406e+00,-6.844128608703613281e+00,-6.822167396545410156e+00,-6.946382999420166016e+00,-6.939654350280761719e+00,-6.960171222686767578e+00,-6.834991931915283203e+00,-6.832021236419677734e+00,-6.833899497985839844e+00,-6.828245639801025391e+00,-6.821933269500732422e+00,-6.841885566711425781e+00,-6.834416866302490234e+00,-6.833920001983642578e+00,-6.814352035522460938e+00,-6.807837486267089844e+00,-6.802682876586914062e+00,-6.798515796661376953e+00,-6.787928581237792969e+00,-6.850139617919921875e+00,-6.772747516632080078e+00,-6.768477439880371094e+00,-6.767351627349853516e+00,-6.749303817749023438e+00,-6.962210655212402344e+00,-6.725535869598388672e+00,-6.750177383422851562e+00,-6.799771308898925781e+00,-6.880363941192626953e+00,-6.790439605712890625e+00,-6.891363143920898438e+00,-6.897216796875000000e+00,-6.860539436340332031e+00,-6.874650001525878906e+00,-6.922570228576660156e+00,-6.865917682647705078e+00,-6.888995647430419922e+00,-6.782284259796142578e+00,-6.883665561676025391e+00,-6.905072212219238281e+00,-6.898447036743164062e+00,-6.885001659393310547e+00,-6.873751163482666016e+00,-6.875928878784179688e+00,-6.839715957641601562e+00,-6.827400207519531250e+00,-6.816520214080810547e+00,-6.861607074737548828e+00,-6.853343963623046875e+00,-6.832046985626220703e+00,-6.816148757934570312e+00,-6.798968315124511719e+00,-6.772738456726074219e+00,-6.764871120452880859e+00,-6.751461029052734375e+00,-6.770318984985351562e+00,nan,nan,nan,-6.647039413452148438e+00,-6.621578693389892578e+00,-6.616562843322753906e+00,-6.691482543945312500e+00,-6.822651863098144531e+00,-6.596104145050048828e+00,-6.535840034484863281e+00,-6.775338649749755859e+00,-6.646493911743164062e+00,-6.742529869079589844e+00,-6.430652141571044922e+00,-6.800889968872070312e+00,-6.783130645751953125e+00,nan,-6.347950935363769531e+00,-6.662225723266601562e+00,-6.656790256500244141e+00,-6.663536071777343750e+00,-6.629389286041259766e+00,-6.588120460510253906e+00,-6.554383277893066406e+00,-6.565382957458496094e+00,-6.569392681121826172e+00,-6.560008049011230469e+00,-6.621477127075195312e+00,-6.627485275268554688e+00,-6.605493545532226562e+00,-6.555791378021240234e+00,-6.501441478729248047e+00,-6.301709175109863281e+00,-6.130038738250732422e+00,nan,-6.634087562561035156e+00,-6.313301563262939453e+00,-6.478704452514648438e+00
-9.038623809814453125e+00,-9.510643959045410156e+00,-8.730671882629394531e+00,-8.523850440979003906e+00,-8.383005142211914062e+00,-8.377547264099121094e+00,-8.383728027343750000e+00,-9.253242492675781250e+00,-9.157032012939453125e+00,-9.124119758605957031e+00,-9.051418304443359375e+00,-9.063619613647460938e+00,-9.044806480407714844e+00,-9.020861625671386719e+00,-8.077953338623046875e+00,-8.977613449096679688e+00,-8.889380455017089844e+00,-8.829084396362304688e+00,-8.769461631774902344e+00,-8.720571517944335938e+00,-8.683614730834960938e+00,-8.666432380676269531e+00,-8.610332489013671875e+00,-8.607660293579101562e+00,-7.879289627075195312e+00,-7.927585124969482422e+00,-8.505915641784667969e+00,-8.497056961059570312e+00,-8.448834419250488281e+00,-7.482036590576171875e+00,-8.368680000305175781e+00,-8.381057739257812500e+00,-8.358517646789550781e+00,-7.506037235260009766e+00,-7.506872653961181641e+00,-7.505445480346679688e+00,-7.515301227569580078e+00,-7.517057895660400391e+00,-7.516946315765380859e+00,-7.520511627197265625e+00,-7.522333621978759766e+00,-7.526350975036621094e+00,-8.000375747680664062e+00,-8.026306152343750000e+00,-7.978322982788085938e+00,-7.933840751647949219e+00,-7.894715309143066406e+00,-7.835847377777099609e+00,-7.764355182647705078e+00,-7.186345100402832031e+00,-6.946506023406982422e+00,-6.944012165069580078e+00,-6.949380397796630859e+00,-6.957780361175537109e+00,-7.265749931335449219e+00,-6.973029613494873047e+00,-6.692675113677978516e+00,-6.986010551452636719e+00,-6.995445728302001953e+00,-7.001577854156494141e+00,-7.003411769866943359e+00,-6.740613460540771484e+00,-7.016551017761230469e+00,-7.020363807678222656e+00,-7.026574611663818359e+00,-6.958743095397949219e+00,-6.781382083892822266e+00,-6.955330371856689453e+00,-6.999557971954345703e+00,-7.018944740295410156e+00,-6.979956150054931641e+00,-6.918308734893798828e+00,-6.808127880096435547e+00,-6.831743717193603516e+00,-6.832486629486083984e+00,-6.862022399902343750e+00,-6.902437210083007812e+00,-6.824974060058593750e+00,-6.817454338073730469e+00,-6.818642139434814453e+00,-6.840427875518798828e+00,-6.819492340087890625e+00,-6.813623428344726562e+00,-6.810508728027343750e+00,-6.619679927825927734e+00,-6.802181243896484375e+00,-6.798614978790283203e+00,-6.788659095764160156e+00,-6.787806510925292969e+00,-6.783274650573730469e+00,-6.772730827331542969e+00,-6.764927387237548828e+00,-6.760908603668212891e+00,-6.743879318237304688e+00,-6.736859321594238281e+00,-6.759047985076904297e+00,-6.739342212677001953e+00,-6.799602508544921875e+00,-6.854875564575195312e+00,-6.799113750457763672e+00,-6.788402080535888672e+00,-6.882698535919189453e+00,-6.877458572387695312e+00,-6.856715679168701172e+00,-6.848358631134033203e+00,-6.869728088378906250e+00,nan,-6.892241477966308594e+00,-6.794396877288818359e+00,-6.771929740905761719e+00,-6.872007369995117188e+00,-6.858362197875976562e+00,-6.884566307067871094e+00,-6.866178035736083984e+00,-6.862314224243164062e+00,-6.835992813110351562e+00,-6.796235084533691406e+00,-6.829595088958740234e+00,-6.801620960235595703e+00,-6.821979999542236328e+00,-6.795783519744873047e+00,-6.823641300201416016e+00,-6.794592380523681641e+00,-6.787555217742919922e+00,-6.760281085968017578e+00,-6.750890731811523438e+00,nan,-6.937795162200927734e+00,-6.787818431854248047e+00,-6.750218868255615234e+00,-6.645503044128417969e+00,-6.633435726165771484e+00,-6.606343269348144531e+00,-6.588114738464355469e+00,-6.604154109954833984e+00,-6.788356304168701172e+00,-6.781321525573730469e+00,-6.648905277252197266e+00,-6.565827369689941406e+00,-6.737369060516357422e+00,-6.625060558319091797e+00,-6.762617111206054688e+00,-6.761112213134765625e+00,-6.762820243835449219e+00,-6.732350349426269531e+00,-6.687842369079589844e+00,-6.642271995544433594e+00,-6.651008129119873047e+00,-6.627017974853515625e+00,-6.607729434967041016e+00,-6.539162635803222656e+00,-6.549399375915527344e+00,-6.553692817687988281e+00,-6.510348320007324219e+00,-6.574385643005371094e+00,-6.581789493560791016e+00,-6.553343772888183594e+00,-6.608178615570068359e+00,-6.534690380096435547e+00,-6.245253562927246094e+00,-6.399726867675781250e+00,-6.249204635620117188e+00,-6.312307834625244141e+00,nan,nan
-9.540771484375000000e+00,-8.754072189331054688e+00,-8.626481056213378906e+00,-8.733602523803710938e+00,-9.446764945983886719e+00,-8.401719093322753906e+00,-9.041996002197265625e+00,-9.114959716796875000e+00,-9.093846321105957031e+00,-9.073154449462890625e+00,-9.071039199829101562e+00,-9.063840866088867188e+00,-9.050991058349609375e+00,-9.000847816467285156e+00,-8.525474548339843750e+00,-8.891614913940429688e+00,-8.780539512634277344e+00,-8.731655120849609375e+00,-8.710387229919433594e+00,-8.654788970947265625e+00,-8.628927230834960938e+00,-8.619335174560546875e+00,-8.600202560424804688e+00,-8.573657989501953125e+00,-8.535902023315429688e+00,-7.891917228698730469e+00,-8.454744338989257812e+00,-8.430161476135253906e+00,-8.409236907958984375e+00,-8.383809089660644531e+00,-8.355565071105957031e+00,-8.167500495910644531e+00,-8.056081771850585938e+00,-7.506266593933105469e+00,-7.519786357879638672e+00,-7.152958869934082031e+00,-7.517855644226074219e+00,-7.517565727233886719e+00,-7.526631355285644531e+00,-7.178353309631347656e+00,-7.197517395019531250e+00,-7.987292289733886719e+00,-7.974138736724853516e+00,-7.957707405090332031e+00,-7.941536426544189453e+00,-7.878370285034179688e+00,-7.805336475372314453e+00,-7.221795558929443359e+00,-6.915311813354492188e+00,-7.705811500549316406e+00,-6.923563003540039062e+00,-6.942408561706542969e+00,-6.950046062469482422e+00,-6.956851482391357422e+00,-6.975224494934082031e+00,-6.974333286285400391e+00,-6.981472015380859375e+00,-6.986438274383544922e+00,-6.991455078125000000e+00,-7.000820636749267578e+00,-7.003226757049560547e+00,-6.743489265441894531e+00,-6.743677139282226562e+00,-6.748911380767822266e+00,-6.990702629089355469e+00,-6.769171714782714844e+00,-6.774568557739257812e+00,-6.971583366394042969e+00,-6.962118148803710938e+00,-6.957825660705566406e+00,-6.901948451995849609e+00,-6.805206775665283203e+00,-6.799862384796142578e+00,-6.804032802581787109e+00,-6.807546138763427734e+00,-6.809610843658447266e+00,-6.814306735992431641e+00,-6.808388233184814453e+00,-6.810472011566162109e+00,-6.809784889221191406e+00,-6.816915035247802734e+00,-6.806796550750732422e+00,-6.807267189025878906e+00,-6.799436569213867188e+00,-6.568334102630615234e+00,-6.772518157958984375e+00,-6.786938667297363281e+00,-6.786750316619873047e+00,-6.778367519378662109e+00,-6.771100044250488281e+00,-6.778765678405761719e+00,-6.763055801391601562e+00,-6.746854305267333984e+00,-6.740448474884033203e+00,-6.732753276824951172e+00,-6.770350456237792969e+00,-6.839779853820800781e+00,nan,-7.137827873229980469e+00,-6.842988967895507812e+00,-6.775706768035888672e+00,-6.842857360839843750e+00,-6.871192455291748047e+00,-6.851944923400878906e+00,-6.844001770019531250e+00,-6.833606719970703125e+00,-6.834393501281738281e+00,-6.801893711090087891e+00,-6.772609233856201172e+00,-6.764820098876953125e+00,-6.764318943023681641e+00,-6.832228183746337891e+00,-6.721205234527587891e+00,-6.704288482666015625e+00,-6.851571559906005859e+00,-6.790681838989257812e+00,nan,-6.812973022460937500e+00,-6.790587902069091797e+00,-6.787796497344970703e+00,-6.776848793029785156e+00,-6.763440132141113281e+00,-6.797533988952636719e+00,-6.784073829650878906e+00,-6.770343303680419922e+00,-6.746038436889648438e+00,-6.735844135284423828e+00,nan,-6.731729507446289062e+00,nan,-6.664514064788818359e+00,-6.630189895629882812e+00,-6.586182594299316406e+00,-6.589333534240722656e+00,-6.575257778167724609e+00,-6.606263637542724609e+00,-6.761641502380371094e+00,nan,-6.505944252014160156e+00,-6.512284755706787109e+00,-6.546805858612060547e+00,-6.450694561004638672e+00,-6.740040302276611328e+00,-6.730631351470947266e+00,-6.687380790710449219e+00,-6.609680175781250000e+00,-6.684257507324218750e+00,-6.677504062652587891e+00,-6.623888969421386719e+00,-6.541505336761474609e+00,-6.596045494079589844e+00,-6.562911510467529297e+00,-6.534958362579345703e+00,-6.576214790344238281e+00,-6.481287002563476562e+00,-6.495672225952148438e+00,-6.521224021911621094e+00,-6.338008880615234375e+00,-6.517397880554199219e+00,-6.527757167816162109e+00,-6.235659599304199219e+00,-5.956030845642089844e+00,nan,-6.338169097900390625e+00,-6.553161621093750000e+00
-8.775001525878906250e+00,-8.759242057800292969e+00,-9.085022926330566406e+00,-9.328005790710449219e+00,-8.417096138000488281e+00,-9.004489898681640625e+00,-9.113887786865234375e+00,-9.085186958312988281e+00,-9.098622322082519531e+00,-8.135857582092285156e+00,-9.088577270507812500e+00,-8.806646347045898438e+00,-8.364698410034179688e+00,-8.658767700195312500e+00,-8.824762344360351562e+00,-8.756177902221679688e+00,-8.701235771179199219e+00,-8.637719154357910156e+00,-8.614507675170898438e+00,-8.605365753173828125e+00,-7.911792755126953125e+00,-7.911886215209960938e+00,-8.524973869323730469e+00,-7.907833576202392578e+00,-7.912245273590087891e+00,-7.914134502410888672e+00,-8.405614852905273438e+00,-8.385530471801757812e+00,-8.382982254028320312e+00,-8.294372558593750000e+00,-8.283547401428222656e+00,-7.520069599151611328e+00,-8.217084884643554688e+00,-8.039164543151855469e+00,-7.525635242462158203e+00,-7.155513286590576172e+00,-7.164350986480712891e+00,-7.169966697692871094e+00,-7.909929275512695312e+00,-7.921109199523925781e+00,-7.989754676818847656e+00,-7.964734554290771484e+00,-7.924513816833496094e+00,-6.868335247039794922e+00,-7.861444950103759766e+00,-6.889743328094482422e+00,-7.742938041687011719e+00,-6.914615631103515625e+00,-6.913801193237304688e+00,-7.653717994689941406e+00,-6.960257530212402344e+00,-6.941344261169433594e+00,-6.951511383056640625e+00,-6.957890510559082031e+00,-6.968231678009033203e+00,-7.031009197235107422e+00,-6.984433650970458984e+00,-6.987529754638671875e+00,-6.991141796112060547e+00,-6.998941421508789062e+00,-7.001436710357666016e+00,-6.941818237304687500e+00,-6.920965194702148438e+00,-6.941801548004150391e+00,-6.911672592163085938e+00,-6.757776737213134766e+00,-6.774882316589355469e+00,-6.916810989379882812e+00,-6.963039398193359375e+00,-6.897312641143798828e+00,-6.786150455474853516e+00,-6.790016651153564453e+00,-6.793638229370117188e+00,-6.794164180755615234e+00,-6.801509380340576172e+00,-6.799103736877441406e+00,-6.802223205566406250e+00,-6.801048278808593750e+00,-6.801681041717529297e+00,-6.800980091094970703e+00,-6.798980236053466797e+00,-6.796183109283447266e+00,-6.797514438629150391e+00,-6.790280342102050781e+00,-6.782651424407958984e+00,-6.739351272583007812e+00,-6.781038284301757812e+00,-6.780080795288085938e+00,-6.772905349731445312e+00,-6.761976242065429688e+00,-6.757951736450195312e+00,-6.753261566162109375e+00,-7.107892513275146484e+00,-6.731237888336181641e+00,-6.759577274322509766e+00,-7.072239398956298828e+00,-6.801306724548339844e+00,-7.171618938446044922e+00,-6.863115787506103516e+00,-6.873537063598632812e+00,nan,-6.755073070526123047e+00,-6.854394435882568359e+00,-6.846478939056396484e+00,-6.837756633758544922e+00,-6.757724761962890625e+00,-6.808843612670898438e+00,-6.788134574890136719e+00,-6.780673980712890625e+00,-6.765601634979248047e+00,-6.744397640228271484e+00,-6.719233989715576172e+00,-6.705117702484130859e+00,-6.695571422576904297e+00,-6.807012557983398438e+00,-6.774746417999267578e+00,-6.763579845428466797e+00,-6.789881229400634766e+00,-6.792817592620849609e+00,-6.758248805999755859e+00,-6.765259742736816406e+00,-6.756300926208496094e+00,-6.759319782257080078e+00,-6.760447978973388672e+00,-6.763551235198974609e+00,-6.750534057617187500e+00,-6.739004611968994141e+00,-6.719520092010498047e+00,-6.691264152526855469e+00,-6.687566757202148438e+00,-6.660778045654296875e+00,-6.634996891021728516e+00,-6.625337123870849609e+00,-6.576317787170410156e+00,-6.580235004425048828e+00,-6.555740356445312500e+00,-6.592631340026855469e+00,-6.719821453094482422e+00,-6.548112869262695312e+00,-6.474113941192626953e+00,-6.464273452758789062e+00,-6.435282707214355469e+00,-6.407380580902099609e+00,-6.403496265411376953e+00,-6.677962779998779297e+00,-6.680294036865234375e+00,-6.577602386474609375e+00,-6.610036373138427734e+00,-6.537446022033691406e+00,-6.587728023529052734e+00,-6.475907325744628906e+00,-6.487027645111083984e+00,-6.525432109832763672e+00,-6.515860080718994141e+00,-6.309277534484863281e+00,-6.220560550689697266e+00,nan,-6.533727645874023438e+00,-6.459056854248046875e+00,-6.485198974609375000e+00,-6.467603206634521484e+00,nan,nan,-6.351098537445068359e+00,nan
-9.407343864440917969e+00,-8.620449066162109375e+00,-9.331448554992675781e+00,-9.223328590393066406e+00,-9.119358062744140625e+00,-8.444168090820312500e+00,-9.093253135681152344e+00,-9.095335006713867188e+00,-8.857311248779296875e+00,-9.010354995727539062e+00,-8.712536811828613281e+00,-8.597044944763183594e+00,-8.842950820922851562e+00,-8.753188133239746094e+00,-8.626415252685546875e+00,-8.656885147094726562e+00,-8.555716514587402344e+00,-8.572897911071777344e+00,-8.549684524536132812e+00,-8.569699287414550781e+00,-8.560019493103027344e+00,-8.487313270568847656e+00,-8.431159973144531250e+00,-8.371337890625000000e+00,-8.378376007080078125e+00,-8.382328987121582031e+00,-8.363641738891601562e+00,-8.336189270019531250e+00,-8.300696372985839844e+00,-8.303337097167968750e+00,-8.212943077087402344e+00,-8.198678970336914062e+00,-8.141385078430175781e+00,-8.212064743041992188e+00,-8.267083168029785156e+00,-7.163522720336914062e+00,-7.170463562011718750e+00,-7.181879520416259766e+00,-7.184793472290039062e+00,-7.225777149200439453e+00,-7.210011959075927734e+00,-6.857575416564941406e+00,-6.861325263977050781e+00,-6.871649265289306641e+00,-6.883454799652099609e+00,-6.895477771759033203e+00,-7.224313259124755859e+00,-7.647658348083496094e+00,-6.926882743835449219e+00,-6.925471305847167969e+00,-6.933528900146484375e+00,-7.096293926239013672e+00,-6.954571723937988281e+00,-6.960273265838623047e+00,-6.968081951141357422e+00,-6.976337909698486328e+00,nan,-6.987478256225585938e+00,-6.991767883300781250e+00,-6.996899127960205078e+00,-6.923171520233154297e+00,-6.929140567779541016e+00,-6.948919773101806641e+00,-6.740999221801757812e+00,-6.930286407470703125e+00,-6.784034729003906250e+00,-6.900390625000000000e+00,-6.806554317474365234e+00,-6.841670513153076172e+00,-6.774878501892089844e+00,-6.777826786041259766e+00,-6.782670021057128906e+00,-6.782615184783935547e+00,-6.779109477996826172e+00,-6.788487434387207031e+00,-6.541425704956054688e+00,nan,-6.790525436401367188e+00,-6.774054527282714844e+00,-6.735695362091064453e+00,-6.790701389312744141e+00,-6.541320323944091797e+00,-6.769265174865722656e+00,-6.783918380737304688e+00,-6.768764019012451172e+00,-6.768732070922851562e+00,-6.793601989746093750e+00,-6.837723255157470703e+00,-6.800512790679931641e+00,-6.755759239196777344e+00,-6.738678932189941406e+00,-6.741493225097656250e+00,-6.735426425933837891e+00,-6.731895446777343750e+00,-6.770961761474609375e+00,-6.723363399505615234e+00,-6.694557189941406250e+00,-6.859300136566162109e+00,-6.840363025665283203e+00,-6.901698112487792969e+00,-6.772707462310791016e+00,-6.741281032562255859e+00,-6.743238449096679688e+00,-6.841497898101806641e+00,-6.723726272583007812e+00,-6.766732215881347656e+00,-6.790445327758789062e+00,-6.786523818969726562e+00,-6.774903774261474609e+00,-6.753413677215576172e+00,-6.738528251647949219e+00,-6.728081226348876953e+00,-6.702882766723632812e+00,-6.690618038177490234e+00,-6.788132190704345703e+00,-6.767530441284179688e+00,-6.777565956115722656e+00,-6.778013706207275391e+00,-6.762832164764404297e+00,-6.726741313934326172e+00,-6.717704772949218750e+00,-6.735056400299072266e+00,-6.744749069213867188e+00,-6.511980533599853516e+00,-6.705982685089111328e+00,-6.456402778625488281e+00,-6.739808559417724609e+00,-6.695282936096191406e+00,-6.701361656188964844e+00,-6.681969642639160156e+00,-6.667977809906005859e+00,-6.640491485595703125e+00,-6.600267887115478516e+00,-6.806433200836181641e+00,-6.549618721008300781e+00,-6.526065349578857422e+00,-6.538847923278808594e+00,-6.531060218811035156e+00,-6.590267181396484375e+00,-6.504067897796630859e+00,-6.456276893615722656e+00,-6.439991950988769531e+00,-6.408485889434814453e+00,-6.400751113891601562e+00,-6.383030414581298828e+00,-6.665127754211425781e+00,-6.636157512664794922e+00,-6.545562267303466797e+00,-6.533989906311035156e+00,-6.541299343109130859e+00,-6.545220851898193359e+00,-6.538896083831787109e+00,-6.380917549133300781e+00,-6.507634162902832031e+00,-6.513197422027587891e+00,-6.403929233551025391e+00,-6.545186996459960938e+00,-6.498106002807617188e+00,-6.500946521759033203e+00,-6.376768112182617188e+00,-6.403736114501953125e+00,-6.525791645050048828e+00,-5.949904441833496094e+00,-6.157608985900878906e+00,nan
-8.517697334289550781e+00,-9.249451637268066406e+00,-9.127924919128417969e+00,-9.083581924438476562e+00,-9.101669311523437500e+00,-8.325361251831054688e+00,-9.090197563171386719e+00,-8.937973976135253906e+00,-9.031211853027343750e+00,-8.944462776184082031e+00,-8.889179229736328125e+00,-8.819227218627929688e+00,-8.752476692199707031e+00,-8.693088531494140625e+00,-8.484617233276367188e+00,-8.624482154846191406e+00,-8.616267204284667969e+00,-8.578180313110351562e+00,-8.528766632080078125e+00,-8.548067092895507812e+00,-8.460105895996093750e+00,-8.390368461608886719e+00,-8.284643173217773438e+00,-8.312683105468750000e+00,-8.365243911743164062e+00,-7.514939308166503906e+00,-8.288222312927246094e+00,-8.343813896179199219e+00,-8.224597930908203125e+00,-8.175694465637207031e+00,-7.735395431518554688e+00,-8.144996643066406250e+00,-8.151174545288085938e+00,-8.130792617797851562e+00,-7.985342025756835938e+00,-7.183507442474365234e+00,-7.191166400909423828e+00,-7.180128574371337891e+00,-7.212015628814697266e+00,-7.208340644836425781e+00,-7.205095291137695312e+00,-7.212533950805664062e+00,-6.868815422058105469e+00,-6.869528770446777344e+00,-6.894116401672363281e+00,-7.004365444183349609e+00,nan,-7.657164573669433594e+00,-7.632171630859375000e+00,-6.924755096435546875e+00,-7.727025985717773438e+00,-7.693098068237304688e+00,-7.732597827911376953e+00,-6.647221088409423828e+00,nan,nan,-7.264075756072998047e+00,-6.688188552856445312e+00,-6.691941261291503906e+00,-6.703275680541992188e+00,-6.709121704101562500e+00,-7.249542236328125000e+00,-6.738487720489501953e+00,-6.828382015228271484e+00,-6.843497276306152344e+00,-6.752700328826904297e+00,-6.750771045684814453e+00,-6.756654739379882812e+00,nan,-6.766710758209228516e+00,-6.700446128845214844e+00,-6.769157409667968750e+00,-6.771849155426025391e+00,-6.779315471649169922e+00,-6.783038616180419922e+00,nan,-6.700346469879150391e+00,-6.691997528076171875e+00,-7.060708045959472656e+00,-6.815609931945800781e+00,-6.784232616424560547e+00,-6.779139518737792969e+00,-6.527091503143310547e+00,-6.770991325378417969e+00,-6.782448291778564453e+00,-6.772601127624511719e+00,-6.758585453033447266e+00,nan,-6.766310214996337891e+00,-6.771412849426269531e+00,-6.735036373138427734e+00,-6.734016895294189453e+00,-6.721363544464111328e+00,-6.718934535980224609e+00,-7.047167778015136719e+00,-6.766225337982177734e+00,-6.760115146636962891e+00,-7.103136062622070312e+00,-7.061808586120605469e+00,-6.853581905364990234e+00,-6.748301506042480469e+00,-6.738594532012939453e+00,-6.771850109100341797e+00,-6.590952396392822266e+00,-6.830707073211669922e+00,-6.724835395812988281e+00,nan,-6.781364917755126953e+00,-6.772383689880371094e+00,-6.758118629455566406e+00,-6.737298011779785156e+00,-6.723960876464843750e+00,-6.707719802856445312e+00,-6.693642616271972656e+00,-6.697684288024902344e+00,-6.767781734466552734e+00,-6.763378143310546875e+00,-6.738165855407714844e+00,-6.760090351104736328e+00,-6.709087848663330078e+00,-6.666980266571044922e+00,-6.528164386749267578e+00,-6.713262557983398438e+00,-6.496066093444824219e+00,-6.711455821990966797e+00,nan,-6.513415813446044922e+00,-6.651620864868164062e+00,-6.646414279937744141e+00,-6.622713088989257812e+00,-6.629501819610595703e+00,-6.582605361938476562e+00,-6.582175254821777344e+00,-6.561513900756835938e+00,-6.509826660156250000e+00,-6.549624443054199219e+00,-6.716325759887695312e+00,-6.511795520782470703e+00,-6.499102592468261719e+00,-6.489371299743652344e+00,-6.476711273193359375e+00,-6.456200599670410156e+00,-6.427642822265625000e+00,-6.488117218017578125e+00,-6.675704956054687500e+00,-6.360764503479003906e+00,-6.660996437072753906e+00,-6.655900955200195312e+00,-6.608121871948242188e+00,-6.528660297393798828e+00,-6.546525955200195312e+00,-6.464535236358642578e+00,-6.308913707733154297e+00,-6.451237678527832031e+00,-6.523576736450195312e+00,-6.469848632812500000e+00,nan,-6.368104934692382812e+00,nan,-5.952548980712890625e+00,-6.482706069946289062e+00,nan,-6.442123889923095703e+00,nan,nan
-8.507365226745605469e+00,-8.501620292663574219e+00,-8.472201347351074219e+00,-9.134163856506347656e+00,-9.127191543579101562e+00,-9.092574119567871094e+00,-9.026426315307617188e+00,-8.938361167907714844e+00,-8.897545814514160156e+00,-8.849677085876464844e+00,-8.801566123962402344e+00,-8.466129302978515625e+00,-7.964573383331298828e+00,-7.961223602294921875e+00,-7.960748672485351562e+00,-8.351037979125976562e+00,-8.501731872558593750e+00,-8.560189247131347656e+00,-8.270295143127441406e+00,-8.436796188354492188e+00,-8.373907089233398438e+00,-8.319183349609375000e+00,-8.287316322326660156e+00,-8.303447723388671875e+00,-8.271909713745117188e+00,-8.262065887451171875e+00,-8.235716819763183594e+00,-8.207536697387695312e+00,-8.159916877746582031e+00,-7.137627601623535156e+00,-7.140917778015136719e+00,-8.177686691284179688e+00,-7.887955188751220703e+00,-7.963933467864990234e+00,-8.088465690612792969e+00,-7.863179683685302734e+00,-7.191740989685058594e+00,-7.195596218109130859e+00,-7.199126720428466797e+00,-7.203398704528808594e+00,-7.209672451019287109e+00,-7.212597370147705078e+00,-7.220057964324951172e+00,-6.878746986389160156e+00,-6.881804466247558594e+00,-7.651320934295654297e+00,-7.636639118194580078e+00,-7.640036582946777344e+00,-7.607045650482177734e+00,-7.731090068817138672e+00,-7.718501091003417969e+00,-6.941976070404052734e+00,-7.558592796325683594e+00,-6.959117889404296875e+00,-7.548833847045898438e+00,-7.253330707550048828e+00,-7.278726577758789062e+00,-6.703993320465087891e+00,-6.688807964324951172e+00,-6.729501724243164062e+00,-7.236552715301513672e+00,-7.162138462066650391e+00,-6.832554340362548828e+00,nan,-7.104161262512207031e+00,nan,-6.745059490203857422e+00,-7.159631252288818359e+00,-6.815670967102050781e+00,nan,nan,-6.766418457031250000e+00,nan,-6.771473884582519531e+00,-6.780866146087646484e+00,-6.987860202789306641e+00,nan,-7.026363372802734375e+00,-6.989208221435546875e+00,-6.794751644134521484e+00,-6.797989845275878906e+00,-6.813666820526123047e+00,-6.793539047241210938e+00,-6.766651630401611328e+00,-6.821068763732910156e+00,-6.732367992401123047e+00,-6.751059532165527344e+00,-6.746185779571533203e+00,-6.758934497833251953e+00,-6.760647296905517578e+00,-6.732323169708251953e+00,-7.066687583923339844e+00,-6.719297885894775391e+00,nan,-6.696371078491210938e+00,-6.758893966674804688e+00,-6.670339107513427734e+00,-6.677705764770507812e+00,nan,-6.783832550048828125e+00,-6.748464107513427734e+00,-6.715302467346191406e+00,-6.731213569641113281e+00,-6.649424552917480469e+00,-6.704926490783691406e+00,-6.799047946929931641e+00,-6.726952075958251953e+00,-6.778277873992919922e+00,-6.773714065551757812e+00,-6.750843048095703125e+00,-6.731085777282714844e+00,-6.670763015747070312e+00,-6.694782257080078125e+00,-6.690662384033203125e+00,-6.669977188110351562e+00,-6.653057575225830078e+00,-6.748248100280761719e+00,-6.722412109375000000e+00,-6.707833290100097656e+00,-6.735428810119628906e+00,-6.693187236785888672e+00,nan,-6.631865024566650391e+00,-6.622179985046386719e+00,-6.684143543243408203e+00,-6.680304527282714844e+00,-6.603106498718261719e+00,-6.566643238067626953e+00,-6.607270717620849609e+00,-6.360246658325195312e+00,-6.600859165191650391e+00,-6.592772483825683594e+00,-6.577462673187255859e+00,-6.554871559143066406e+00,-6.546099662780761719e+00,-6.467283725738525391e+00,-6.718679904937744141e+00,-6.502363681793212891e+00,-6.647852897644042969e+00,-6.470910072326660156e+00,-6.447876930236816406e+00,-6.452625274658203125e+00,-6.440468788146972656e+00,-6.623579025268554688e+00,-6.426100254058837891e+00,-6.423851966857910156e+00,nan,-6.563827037811279297e+00,-6.625586986541748047e+00,-6.566734790802001953e+00,-6.569345951080322266e+00,-6.557063579559326172e+00,-6.483203887939453125e+00,-6.519536018371582031e+00,nan,-6.415717601776123047e+00,-6.507327079772949219e+00,-6.486189365386962891e+00,-6.472164154052734375e+00,-6.376229286193847656e+00,-6.215546131134033203e+00,-6.297420978546142578e+00,-6.502328395843505859e+00,-6.442460536956787109e+00,-6.283507823944091797e+00
-9.162278175354003906e+00,-9.158174514770507812e+00,-9.070383071899414062e+00,-9.136753082275390625e+00,-9.075162887573242188e+00,-9.001478195190429688e+00,-8.921129226684570312e+00,-7.972386360168457031e+00,-7.970072746276855469e+00,-8.756515502929687500e+00,-8.675329208374023438e+00,-8.683675765991210938e+00,-8.349938392639160156e+00,-8.616573333740234375e+00,-8.470151901245117188e+00,-8.443994522094726562e+00,-8.562069892883300781e+00,-8.497503280639648438e+00,-8.465951919555664062e+00,-8.379500389099121094e+00,-8.333151817321777344e+00,-8.266562461853027344e+00,-8.240488052368164062e+00,-8.282409667968750000e+00,-8.292682647705078125e+00,-8.267728805541992188e+00,-8.214114189147949219e+00,-8.183617591857910156e+00,-8.175395011901855469e+00,-8.182024955749511719e+00,-8.158112525939941406e+00,-8.032831192016601562e+00,-7.910042285919189453e+00,-7.954854011535644531e+00,-7.117393016815185547e+00,-7.087754249572753906e+00,-7.191279411315917969e+00,-7.193966865539550781e+00,-7.194597721099853516e+00,-7.104507923126220703e+00,-7.649887084960937500e+00,-7.741183280944824219e+00,-7.593638420104980469e+00,-6.880815982818603516e+00,-7.607024669647216797e+00,-7.601099014282226562e+00,-7.641932964324951172e+00,-7.664487361907958984e+00,-7.644987106323242188e+00,-7.717201232910156250e+00,nan,-7.392182350158691406e+00,-7.438417911529541016e+00,-7.420123577117919922e+00,-7.213928699493408203e+00,-7.258778095245361328e+00,-7.237405776977539062e+00,-7.287583351135253906e+00,-6.940877914428710938e+00,nan,nan,-6.814449310302734375e+00,-6.822622776031494141e+00,-7.110013008117675781e+00,-7.084578037261962891e+00,-6.732919692993164062e+00,-6.733699321746826172e+00,-7.143777847290039062e+00,nan,nan,-6.749494075775146484e+00,-6.766695022583007812e+00,-6.762330055236816406e+00,-6.758158206939697266e+00,-6.943698883056640625e+00,-6.992286682128906250e+00,-7.043829917907714844e+00,nan,-7.103160381317138672e+00,-7.030052661895751953e+00,-6.781243324279785156e+00,-6.730435371398925781e+00,-6.790604591369628906e+00,-6.757334232330322266e+00,-6.750422000885009766e+00,nan,-6.746416091918945312e+00,-6.737423419952392578e+00,-6.733947277069091797e+00,-6.730022430419921875e+00,-6.711870193481445312e+00,nan,-6.798120975494384766e+00,nan,-6.686322212219238281e+00,-6.671149730682373047e+00,-6.698685169219970703e+00,-6.667637348175048828e+00,nan,-6.629772186279296875e+00,-6.612132072448730469e+00,-6.716842651367187500e+00,-6.710784912109375000e+00,-6.695609569549560547e+00,-6.916159629821777344e+00,-6.971784591674804688e+00,-7.012590885162353516e+00,-6.780869483947753906e+00,-6.759204864501953125e+00,-6.742192268371582031e+00,-6.736723899841308594e+00,-7.062856197357177734e+00,-6.730105400085449219e+00,-6.702761650085449219e+00,-6.684565067291259766e+00,-6.644694805145263672e+00,-6.701273918151855469e+00,-6.729341030120849609e+00,-6.707678318023681641e+00,-6.686628341674804688e+00,-6.699961185455322266e+00,-6.674583911895751953e+00,-6.649289131164550781e+00,-6.628588676452636719e+00,-6.615274429321289062e+00,-6.620872497558593750e+00,-6.612296581268310547e+00,-6.421369075775146484e+00,-6.524097919464111328e+00,-6.355840682983398438e+00,-6.352266788482666016e+00,-6.563565254211425781e+00,-6.546802997589111328e+00,-6.541143417358398438e+00,-6.550652503967285156e+00,-6.512430191040039062e+00,-6.509678363800048828e+00,-6.491371631622314453e+00,-6.468371391296386719e+00,-6.486003875732421875e+00,-6.363417148590087891e+00,-6.327661991119384766e+00,-6.600767612457275391e+00,-6.591785430908203125e+00,-6.592284202575683594e+00,-6.374065876007080078e+00,-6.336997985839843750e+00,-6.593751907348632812e+00,-6.591541290283203125e+00,-6.530835151672363281e+00,-6.590771675109863281e+00,-6.513022899627685547e+00,-6.495642662048339844e+00,-6.530591011047363281e+00,-6.441970825195312500e+00,nan,-6.487333774566650391e+00,nan,-6.463924407958984375e+00,nan,-6.460195541381835938e+00,-6.463379859924316406e+00,-6.461216926574707031e+00,-6.282243728637695312e+00,-6.438275814056396484e+00
-9.154561996459960938e+00,-9.158667564392089844e+00,-9.085463523864746094e+00,-9.029370307922363281e+00,-9.021748542785644531e+00,-8.953698158264160156e+00,-8.854087829589843750e+00,-8.511754035949707031e+00,-8.715030670166015625e+00,-8.653878211975097656e+00,-8.650011062622070312e+00,-7.992491245269775391e+00,-7.992830753326416016e+00,-8.565487861633300781e+00,-7.995180606842041016e+00,-8.537954330444335938e+00,-8.504102706909179688e+00,-8.440399169921875000e+00,-7.777973651885986328e+00,-8.008240699768066406e+00,-8.356887817382812500e+00,-8.223155021667480469e+00,-8.348505020141601562e+00,-8.255653381347656250e+00,-8.218390464782714844e+00,-8.218019485473632812e+00,-8.175261497497558594e+00,-8.189385414123535156e+00,-8.103101730346679688e+00,-8.048406600952148438e+00,-7.970558166503906250e+00,-7.904375076293945312e+00,-7.841434478759765625e+00,-7.181890010833740234e+00,-7.181144714355468750e+00,-6.805144309997558594e+00,-6.827847003936767578e+00,-7.069317817687988281e+00,-7.046506404876708984e+00,-7.138154029846191406e+00,-6.921555519104003906e+00,-7.568048000335693359e+00,-6.877736568450927734e+00,-7.603999137878417969e+00,-7.589629650115966797e+00,-7.600412845611572266e+00,-7.655346870422363281e+00,-7.643293380737304688e+00,-7.665837764739990234e+00,nan,-7.573858737945556641e+00,-7.439518451690673828e+00,-7.425904273986816406e+00,-7.186289310455322266e+00,-7.311457633972167969e+00,-7.230153560638427734e+00,-7.260127544403076172e+00,-6.922201156616210938e+00,-7.246523380279541016e+00,-6.931025981903076172e+00,-6.862600803375244141e+00,-6.857802391052246094e+00,-7.102696418762207031e+00,-7.078879833221435547e+00,-7.067519664764404297e+00,-6.728834152221679688e+00,-6.730759143829345703e+00,-7.065698146820068359e+00,-7.039512634277343750e+00,nan,nan,nan,-7.161902904510498047e+00,-6.995772361755371094e+00,-7.001295089721679688e+00,-7.073081016540527344e+00,-7.017724037170410156e+00,-7.042949676513671875e+00,-6.769547462463378906e+00,-6.753826618194580078e+00,-6.776795864105224609e+00,nan,-6.779882907867431641e+00,-6.746068954467773438e+00,-6.778683662414550781e+00,-6.748891830444335938e+00,-6.742360591888427734e+00,-6.725912570953369141e+00,-6.720139026641845703e+00,-6.712978363037109375e+00,-6.707675457000732422e+00,-6.873723030090332031e+00,nan,-6.823749542236328125e+00,-6.675484180450439453e+00,-6.710582256317138672e+00,-6.707190990447998047e+00,-6.702554702758789062e+00,-6.769171714782714844e+00,-6.720033168792724609e+00,-6.731295108795166016e+00,-6.648654460906982422e+00,-6.699173450469970703e+00,-6.699015617370605469e+00,-6.964302539825439453e+00,-6.761100769042968750e+00,-6.776668548583984375e+00,-6.677252769470214844e+00,-6.640839576721191406e+00,-6.644805431365966797e+00,-6.624140739440917969e+00,-6.720919132232666016e+00,-6.975156784057617188e+00,nan,nan,-7.026234149932861328e+00,-6.623898506164550781e+00,-6.726914405822753906e+00,-6.702650547027587891e+00,-6.698139190673828125e+00,-6.671467781066894531e+00,-6.657289028167724609e+00,nan,-6.620605945587158203e+00,-6.610437870025634766e+00,-6.592671394348144531e+00,-6.421024322509765625e+00,-6.409817218780517578e+00,-6.385083198547363281e+00,-6.371821403503417969e+00,-6.350737571716308594e+00,-6.550498008728027344e+00,-6.539420127868652344e+00,-6.499840736389160156e+00,-6.495289325714111328e+00,-6.492673397064208984e+00,-6.472644805908203125e+00,-6.439315795898437500e+00,-6.443062305450439453e+00,-6.384188652038574219e+00,-6.339300155639648438e+00,-6.324628353118896484e+00,-6.579635620117187500e+00,-6.433060646057128906e+00,-6.417131900787353516e+00,-6.199827671051025391e+00,-6.370529174804687500e+00,-6.480286598205566406e+00,-6.578758239746093750e+00,-6.564750671386718750e+00,-6.555480003356933594e+00,-6.562924861907958984e+00,-6.479493618011474609e+00,-6.518569469451904297e+00,-6.429983139038085938e+00,-6.474318981170654297e+00,nan,nan,-6.480648994445800781e+00,-6.376893043518066406e+00,-6.328392028808593750e+00,-6.478300094604492188e+00,-6.330326080322265625e+00,-6.357809066772460938e+00,-6.326673507690429688e+00
-9.101355552673339844e+00,-9.089233398437500000e+00,-9.054410934448242188e+00,-8.708350181579589844e+00,-8.878461837768554688e+00,-8.863010406494140625e+00,-8.823973655700683594e+00,-8.734651565551757812e+00,-8.678266525268554688e+00,-8.658713340759277344e+00,-8.614301681518554688e+00,-8.562728881835937500e+00,-8.431385040283203125e+00,-8.006939888000488281e+00,-7.997170448303222656e+00,-8.063467979431152344e+00,-7.853777885437011719e+00,-8.217336654663085938e+00,-8.158158302307128906e+00,-8.373449325561523438e+00,-8.316396713256835938e+00,-8.328723907470703125e+00,-8.259896278381347656e+00,-8.209661483764648438e+00,-8.233464241027832031e+00,-8.211510658264160156e+00,-8.184156417846679688e+00,-8.100107192993164062e+00,-8.037643432617187500e+00,-7.933347702026367188e+00,-7.121944904327392578e+00,-7.841989994049072266e+00,-7.845917701721191406e+00,-7.173733711242675781e+00,-7.128901958465576172e+00,-7.972271919250488281e+00,-6.988751888275146484e+00,-7.761742591857910156e+00,-7.628025531768798828e+00,-7.570824623107910156e+00,-7.572990894317626953e+00,-7.560480594635009766e+00,-7.588641166687011719e+00,-7.502427101135253906e+00,-7.573953628540039062e+00,-7.587255954742431641e+00,-7.614773273468017578e+00,-7.646655559539794922e+00,-6.922123908996582031e+00,-7.520146846771240234e+00,nan,-7.540529727935791016e+00,-7.474799156188964844e+00,nan,nan,-7.174173831939697266e+00,-6.908177852630615234e+00,-6.799911022186279297e+00,-6.922587871551513672e+00,-6.929605960845947266e+00,-6.733057498931884766e+00,-7.114426612854003906e+00,-7.112849235534667969e+00,-7.115571498870849609e+00,-7.069651126861572266e+00,-6.752170562744140625e+00,nan,-7.089453220367431641e+00,-7.035787105560302734e+00,nan,-7.059058666229248047e+00,nan,nan,-6.745264530181884766e+00,-6.994521617889404297e+00,-6.683200836181640625e+00,-7.013793945312500000e+00,-6.697675704956054688e+00,nan,-6.761551856994628906e+00,-6.744608879089355469e+00,-6.750909805297851562e+00,-6.764266967773437500e+00,-6.746252536773681641e+00,-6.735503673553466797e+00,-6.770082473754882812e+00,-6.738594055175781250e+00,-6.704583168029785156e+00,-6.708512306213378906e+00,-6.703021049499511719e+00,-6.699553966522216797e+00,-6.705483436584472656e+00,-6.746898651123046875e+00,nan,-6.691691398620605469e+00,-6.680081844329833984e+00,-6.696130752563476562e+00,-6.740178108215332031e+00,-6.713728427886962891e+00,-6.741754531860351562e+00,-6.722750663757324219e+00,-6.687891483306884766e+00,-6.968764781951904297e+00,-6.683072090148925781e+00,-6.942626476287841797e+00,-6.741896152496337891e+00,-7.031868934631347656e+00,-6.643932819366455078e+00,-6.636115550994873047e+00,-6.630978584289550781e+00,-6.659839153289794922e+00,-6.708926200866699219e+00,-6.698363780975341797e+00,nan,-7.016955375671386719e+00,nan,-7.210908889770507812e+00,-6.625443935394287109e+00,-6.683891296386718750e+00,-6.696219444274902344e+00,-6.661984443664550781e+00,-6.653721809387207031e+00,-6.647964000701904297e+00,-6.637200832366943359e+00,-6.608966350555419922e+00,-6.594853878021240234e+00,-6.426890373229980469e+00,-6.412349700927734375e+00,-6.380797863006591797e+00,-6.371268272399902344e+00,-6.496380329132080078e+00,-6.483076095581054688e+00,-6.518301486968994141e+00,-6.477334976196289062e+00,-6.451341629028320312e+00,-6.421773433685302734e+00,-6.442898273468017578e+00,-6.454319477081298828e+00,-6.397937297821044922e+00,-6.351803302764892578e+00,-6.319711685180664062e+00,-6.548319816589355469e+00,-6.533113479614257812e+00,-6.509075164794921875e+00,-6.500109195709228516e+00,-6.330977916717529297e+00,-6.369698047637939453e+00,-6.446917533874511719e+00,-6.508186817169189453e+00,-6.406400203704833984e+00,-6.549800395965576172e+00,-6.529668807983398438e+00,-6.460697650909423828e+00,-6.464555740356445312e+00,-6.421542644500732422e+00,-6.442665576934814453e+00,-6.487087726593017578e+00,nan,nan,nan,-6.472095966339111328e+00,nan,-6.208996772766113281e+00,-6.330225467681884766e+00,-6.335611343383789062e+00
-9.029002189636230469e+00,-9.093527793884277344e+00,-8.949912071228027344e+00,-8.890474319458007812e+00,-8.826375961303710938e+00,-8.748656272888183594e+00,-8.836736679077148438e+00,-8.690727233886718750e+00,-8.637084960937500000e+00,-8.594174385070800781e+00,-8.578208923339843750e+00,-8.586130142211914062e+00,-8.013538360595703125e+00,-7.723619461059570312e+00,-7.856295585632324219e+00,-7.792730331420898438e+00,-7.856183052062988281e+00,-7.677656173706054688e+00,-7.853775501251220703e+00,-8.337705612182617188e+00,-8.327367782592773438e+00,-8.228689193725585938e+00,-8.161645889282226562e+00,-8.204010009765625000e+00,-8.236592292785644531e+00,-8.169834136962890625e+00,-8.147878646850585938e+00,-7.997870445251464844e+00,-7.905289173126220703e+00,-7.844080448150634766e+00,-7.826349258422851562e+00,-7.844430923461914062e+00,-7.731794357299804688e+00,-6.788914680480957031e+00,-6.801025390625000000e+00,-7.070329189300537109e+00,-7.740975856781005859e+00,-6.853754043579101562e+00,-7.843791961669921875e+00,-7.566649913787841797e+00,-7.398246288299560547e+00,-6.907819747924804688e+00,-7.557785034179687500e+00,-7.548439979553222656e+00,-7.582934856414794922e+00,-7.590027809143066406e+00,-7.584430217742919922e+00,-7.664599418640136719e+00,-6.921706676483154297e+00,-7.557791709899902344e+00,-7.399683952331542969e+00,-7.215003013610839844e+00,nan,-7.314730167388916016e+00,-7.245897769927978516e+00,-7.162597656250000000e+00,-6.897356510162353516e+00,-6.739669322967529297e+00,-6.921777248382568359e+00,-7.108532905578613281e+00,-6.823825836181640625e+00,-6.856284141540527344e+00,-6.854265689849853516e+00,-7.055477142333984375e+00,-7.072311401367187500e+00,-7.077054023742675781e+00,-6.727881908416748047e+00,-6.742751121520996094e+00,nan,-6.712917804718017578e+00,nan,-6.726248264312744141e+00,-6.736474037170410156e+00,-6.743227481842041016e+00,-6.941170215606689453e+00,nan,nan,-6.690580844879150391e+00,nan,-6.732659339904785156e+00,-6.735159397125244141e+00,-7.118630409240722656e+00,-6.765719890594482422e+00,-6.741184711456298828e+00,-6.706263542175292969e+00,-6.736733436584472656e+00,-6.718711376190185547e+00,-6.429453849792480469e+00,-6.703941345214843750e+00,-6.695835113525390625e+00,-6.686365127563476562e+00,-6.679892063140869141e+00,-6.737547874450683594e+00,-6.667977333068847656e+00,-6.672635078430175781e+00,-6.646119117736816406e+00,-6.642231941223144531e+00,-6.621417999267578125e+00,-6.704907894134521484e+00,-6.696324825286865234e+00,nan,-7.006024360656738281e+00,-6.688429355621337891e+00,nan,-6.820618629455566406e+00,-6.971149444580078125e+00,-6.687532424926757812e+00,-6.693397521972656250e+00,-6.611659049987792969e+00,-6.627897739410400391e+00,-6.588552474975585938e+00,-6.702441692352294922e+00,-6.691967010498046875e+00,-7.045908927917480469e+00,nan,-7.025182247161865234e+00,-7.121005535125732422e+00,-7.040822982788085938e+00,-6.636258125305175781e+00,-7.057530403137207031e+00,-6.668427944183349609e+00,nan,-6.591508388519287109e+00,-6.505114078521728516e+00,-6.473976135253906250e+00,-6.449022293090820312e+00,-6.432025432586669922e+00,-6.408495903015136719e+00,-6.426490783691406250e+00,-6.444169044494628906e+00,-6.452123165130615234e+00,-6.472514152526855469e+00,-6.463786125183105469e+00,-6.475265026092529297e+00,-6.424048900604248047e+00,-6.402619838714599609e+00,-6.394104003906250000e+00,-6.373738288879394531e+00,-6.376778602600097656e+00,-6.339090347290039062e+00,-6.287009239196777344e+00,-6.347960948944091797e+00,-6.580119132995605469e+00,-6.523496150970458984e+00,-6.389256477355957031e+00,-6.435648918151855469e+00,-6.513400554656982422e+00,-6.377115249633789062e+00,-6.370254516601562500e+00,-6.359049320220947266e+00,-6.511405944824218750e+00,-6.517940521240234375e+00,-6.498952865600585938e+00,-6.499818801879882812e+00,-6.430796146392822266e+00,-6.389580726623535156e+00,nan,nan,nan,nan,nan,nan,-6.359843254089355469e+00,-6.218489646911621094e+00,-6.277498245239257812e+00
-8.952875137329101562e+00,-8.933510780334472656e+00,-8.934178352355957031e+00,-8.932806968688964844e+00,-8.774350166320800781e+00,-8.743136405944824219e+00,-8.624147415161132812e+00,-8.664337158203125000e+00,-8.626291275024414062e+00,-8.560448646545410156e+00,-8.596032142639160156e+00,-8.576677322387695312e+00,-7.940962314605712891e+00,-7.899907588958740234e+00,-8.422781944274902344e+00,-7.831903457641601562e+00,-7.976907253265380859e+00,-8.349675178527832031e+00,-7.662654399871826172e+00,-8.328974723815917969e+00,-8.280361175537109375e+00,-8.209602355957031250e+00,-8.225835800170898438e+00,-8.220515251159667969e+00,-8.196310043334960938e+00,-8.137765884399414062e+00,-7.742081165313720703e+00,-7.892913818359375000e+00,-7.829292774200439453e+00,-7.841715812683105469e+00,-7.819582939147949219e+00,-7.980557918548583984e+00,-8.002934455871582031e+00,-6.796896934509277344e+00,-6.809633731842041016e+00,-7.713626861572265625e+00,-7.131293773651123047e+00,-7.371420383453369141e+00,-7.529458999633789062e+00,-7.560547351837158203e+00,-7.552209854125976562e+00,-6.847506999969482422e+00,-6.766905307769775391e+00,-7.528362274169921875e+00,-7.536101341247558594e+00,-6.556610107421875000e+00,-6.566569805145263672e+00,-7.063109874725341797e+00,-6.924382209777832031e+00,-6.813256263732910156e+00,nan,-6.956758022308349609e+00,-6.949685573577880859e+00,nan,nan,-7.176577568054199219e+00,-7.121198177337646484e+00,-6.760022163391113281e+00,-6.773402214050292969e+00,-7.011443138122558594e+00,-7.074139595031738281e+00,-7.114501953125000000e+00,-7.005109310150146484e+00,-7.046548843383789062e+00,-7.053318977355957031e+00,-6.983178615570068359e+00,nan,nan,-6.707690715789794922e+00,-6.955924987792968750e+00,-6.721674919128417969e+00,-6.724050045013427734e+00,-6.724464416503906250e+00,-6.910410404205322266e+00,nan,-6.990542888641357422e+00,nan,-6.946488380432128906e+00,-6.567998409271240234e+00,-6.725756645202636719e+00,-6.742177009582519531e+00,-6.697593688964843750e+00,-6.947740077972412109e+00,-6.687258720397949219e+00,nan,-6.483938217163085938e+00,-6.664658069610595703e+00,-6.678959369659423828e+00,-6.650075435638427734e+00,-6.614647865295410156e+00,-6.676087856292724609e+00,-6.704969882965087891e+00,-6.730272769927978516e+00,-6.677012443542480469e+00,-6.713763713836669922e+00,-6.631843566894531250e+00,-6.625696659088134766e+00,-6.620481491088867188e+00,-6.681920528411865234e+00,-6.685924530029296875e+00,-6.671172142028808594e+00,-6.712050437927246094e+00,-6.677154541015625000e+00,nan,-6.523522853851318359e+00,-6.747409820556640625e+00,-6.708132743835449219e+00,-6.635027408599853516e+00,-6.621080398559570312e+00,-6.610033512115478516e+00,-7.116631507873535156e+00,-6.401569366455078125e+00,-6.686704158782958984e+00,-6.685173034667968750e+00,nan,nan,-6.953810214996337891e+00,nan,nan,-6.608081340789794922e+00,nan,-6.637826919555664062e+00,-6.571803569793701172e+00,-6.544591903686523438e+00,-6.466779708862304688e+00,-6.452019691467285156e+00,-6.462587356567382812e+00,-6.412164211273193359e+00,-6.470808029174804688e+00,-6.409540176391601562e+00,-6.435251712799072266e+00,-6.441582679748535156e+00,-6.448951244354248047e+00,-6.442378997802734375e+00,-6.414308071136474609e+00,-6.392595291137695312e+00,-6.215560913085937500e+00,-6.358457565307617188e+00,-6.321455955505371094e+00,-6.339046955108642578e+00,-6.596334457397460938e+00,-6.289172172546386719e+00,-6.337519645690917969e+00,-6.508440017700195312e+00,-6.482873439788818359e+00,-6.420507431030273438e+00,-6.478330135345458984e+00,-6.355281352996826172e+00,-6.478005409240722656e+00,-6.369288444519042969e+00,-6.424296379089355469e+00,-6.389739036560058594e+00,-6.386384487152099609e+00,-6.500138282775878906e+00,-6.481658935546875000e+00,-6.460303306579589844e+00,-6.431057929992675781e+00,-6.399610519409179688e+00,nan,nan,-6.302974224090576172e+00,-6.302816867828369141e+00,-6.317793369293212891e+00,-6.238026142120361328e+00,-6.217298507690429688e+00
-8.957405090332031250e+00,-8.934144020080566406e+00,-8.419002532958984375e+00,-8.801486015319824219e+00,-8.834622383117675781e+00,-8.650255203247070312e+00,-8.051471710205078125e+00,-8.050305366516113281e+00,-8.665431022644042969e+00,-8.625401496887207031e+00,-8.583804130554199219e+00,-8.427248954772949219e+00,-7.933305263519287109e+00,-7.914806842803955078e+00,-8.495684623718261719e+00,-8.377942085266113281e+00,-7.718878269195556641e+00,-8.365593910217285156e+00,-8.348917007446289062e+00,-8.212950706481933594e+00,-8.204091072082519531e+00,-8.243829727172851562e+00,-8.192234039306640625e+00,-8.192923545837402344e+00,-8.158293724060058594e+00,-8.082191467285156250e+00,-7.159095287322998047e+00,-7.854901313781738281e+00,-7.894297599792480469e+00,-7.828209877014160156e+00,-7.803628444671630859e+00,-7.831424713134765625e+00,-7.716777801513671875e+00,-7.698515892028808594e+00,-7.706295013427734375e+00,-7.578749179840087891e+00,-7.043595314025878906e+00,-7.519162178039550781e+00,-7.541076183319091797e+00,-7.565907478332519531e+00,-7.524542331695556641e+00,-7.505106925964355469e+00,-6.703329563140869141e+00,-7.526882648468017578e+00,-7.519288539886474609e+00,-6.539462566375732422e+00,-6.650308132171630859e+00,-7.448838233947753906e+00,-6.922710895538330078e+00,-6.657617568969726562e+00,-6.834519386291503906e+00,-6.814839363098144531e+00,-6.935810565948486328e+00,-6.637996673583984375e+00,-7.102976322174072266e+00,nan,-6.754985332489013672e+00,-6.870741844177246094e+00,nan,-6.934337615966796875e+00,-6.665946960449218750e+00,-6.693267345428466797e+00,-6.700057983398437500e+00,nan,-7.054169178009033203e+00,nan,nan,-6.705526828765869141e+00,-6.612913608551025391e+00,nan,-6.713977813720703125e+00,-6.718286514282226562e+00,-6.719399929046630859e+00,-6.974748611450195312e+00,-6.624625682830810547e+00,nan,-6.879368305206298828e+00,-6.717092514038085938e+00,-6.659033775329589844e+00,nan,nan,-6.721625328063964844e+00,-6.724961757659912109e+00,nan,-6.573012828826904297e+00,-6.627850532531738281e+00,-6.613922119140625000e+00,-6.613992691040039062e+00,-6.438916206359863281e+00,-6.592187881469726562e+00,-6.664169788360595703e+00,-6.656301021575927734e+00,-6.688335418701171875e+00,-6.644290447235107422e+00,-6.344801902770996094e+00,-6.616888999938964844e+00,-6.614413261413574219e+00,-6.595322132110595703e+00,-6.662510871887207031e+00,-6.596491336822509766e+00,-6.672765254974365234e+00,-6.561925888061523438e+00,-6.660345077514648438e+00,-6.568657398223876953e+00,-6.606347560882568359e+00,-6.706768989562988281e+00,-6.938135147094726562e+00,nan,-6.637108325958251953e+00,-6.995983123779296875e+00,-7.044103145599365234e+00,-6.528269290924072266e+00,-6.645760536193847656e+00,nan,-7.110768318176269531e+00,-6.628569602966308594e+00,-6.625322818756103516e+00,nan,-6.575235843658447266e+00,-6.563826560974121094e+00,-6.553114414215087891e+00,-6.600616455078125000e+00,-6.497255325317382812e+00,nan,-6.461390018463134766e+00,-6.446306228637695312e+00,-6.432887077331542969e+00,-6.416122436523437500e+00,-6.380205631256103516e+00,-6.366343021392822266e+00,-6.341837882995605469e+00,-6.326950073242187500e+00,-6.357752323150634766e+00,-6.414945125579833984e+00,-6.422285079956054688e+00,-6.355675697326660156e+00,-6.221265792846679688e+00,-6.360126495361328125e+00,-6.284459114074707031e+00,-6.281408786773681641e+00,-6.313843727111816406e+00,-6.327628135681152344e+00,-6.389016151428222656e+00,-6.328518867492675781e+00,-6.348145484924316406e+00,-6.427451133728027344e+00,-6.429905891418457031e+00,-6.347240447998046875e+00,-6.327319145202636719e+00,-6.464445590972900391e+00,-6.430455207824707031e+00,-6.398287773132324219e+00,-6.444899559020996094e+00,-6.459466934204101562e+00,-6.441299915313720703e+00,-6.465822696685791016e+00,-6.451019287109375000e+00,-6.393613815307617188e+00,-6.388474941253662109e+00,-6.372363090515136719e+00,-6.322549343109130859e+00,-6.273160457611083984e+00,-6.256413936614990234e+00,-6.226317405700683594e+00,-6.258240222930908203e+00
-8.983264923095703125e+00,-8.965064048767089844e+00,-8.744141578674316406e+00,-8.900444984436035156e+00,-8.658609390258789062e+00,-8.736900329589843750e+00,-8.065430641174316406e+00,-8.199535369873046875e+00,-8.624652862548828125e+00,-8.637297630310058594e+00,-8.521986007690429688e+00,-8.504602432250976562e+00,-8.486695289611816406e+00,-8.365270614624023438e+00,-8.347749710083007812e+00,-7.734897613525390625e+00,-8.351771354675292969e+00,-8.345039367675781250e+00,-8.230883598327636719e+00,-8.187499046325683594e+00,-8.241940498352050781e+00,-8.200157165527343750e+00,-8.187498092651367188e+00,-8.047441482543945312e+00,-7.977869987487792969e+00,-7.920397758483886719e+00,-7.873501300811767578e+00,-7.841134071350097656e+00,-7.846655368804931641e+00,-7.773115158081054688e+00,-7.837647438049316406e+00,-7.770049571990966797e+00,-7.678524971008300781e+00,-7.701045513153076172e+00,-7.594426155090332031e+00,-6.995927333831787109e+00,-7.505007266998291016e+00,-7.558888435363769531e+00,-7.551600933074951172e+00,-7.517093658447265625e+00,-7.461288928985595703e+00,-7.479846954345703125e+00,-6.804102420806884766e+00,-7.529448509216308594e+00,-7.539096355438232422e+00,-6.883020877838134766e+00,-6.937086105346679688e+00,-7.302987575531005859e+00,-6.920063495635986328e+00,-6.922482490539550781e+00,-6.580531597137451172e+00,-6.745725631713867188e+00,-6.851883888244628906e+00,-6.864056110382080078e+00,-6.620947360992431641e+00,-6.785518169403076172e+00,-7.093608379364013672e+00,-6.776938438415527344e+00,-7.077997207641601562e+00,-6.930930614471435547e+00,-6.790153503417968750e+00,-6.671232223510742188e+00,-6.678430557250976562e+00,-6.684716701507568359e+00,nan,-6.688498020172119141e+00,-6.665342330932617188e+00,-6.691698551177978516e+00,-6.391397953033447266e+00,-6.698917388916015625e+00,-6.703152179718017578e+00,-6.708169460296630859e+00,-6.708512783050537109e+00,nan,-6.716089725494384766e+00,-6.692997455596923828e+00,nan,-6.675218105316162109e+00,-6.616149425506591797e+00,-6.531859397888183594e+00,-6.674731731414794922e+00,-6.407808780670166016e+00,-6.670539379119873047e+00,-6.578184604644775391e+00,nan,-6.594773292541503906e+00,-6.599801063537597656e+00,-6.566337108612060547e+00,-6.393840789794921875e+00,-6.582581520080566406e+00,-6.645179271697998047e+00,-6.648028373718261719e+00,-6.635939598083496094e+00,-6.625094413757324219e+00,-6.544417381286621094e+00,-6.613021850585937500e+00,-6.604167461395263672e+00,-6.593080520629882812e+00,-6.583080768585205078e+00,-6.573861598968505859e+00,-6.569904327392578125e+00,-6.542930603027343750e+00,-6.608131885528564453e+00,-6.512588500976562500e+00,-6.635798931121826172e+00,-6.590541839599609375e+00,-6.605944156646728516e+00,-6.611498832702636719e+00,-6.483391761779785156e+00,-6.587433338165283203e+00,-6.572298049926757812e+00,-6.561138629913330078e+00,-6.644036293029785156e+00,-6.982796192169189453e+00,nan,-6.628506660461425781e+00,-6.614835739135742188e+00,-6.618533134460449219e+00,-6.566453456878662109e+00,-6.563046455383300781e+00,-6.546715736389160156e+00,-6.521237850189208984e+00,-6.503308773040771484e+00,-6.484130859375000000e+00,-6.472932815551757812e+00,-6.449480533599853516e+00,-6.429010391235351562e+00,-6.406100273132324219e+00,-6.380673408508300781e+00,-6.359826087951660156e+00,-6.346955776214599609e+00,nan,-6.343142032623291016e+00,-6.344715595245361328e+00,-6.302037239074707031e+00,nan,-6.352670669555664062e+00,-6.338673591613769531e+00,-6.610232353210449219e+00,-6.237298011779785156e+00,nan,-6.707188129425048828e+00,-6.313672065734863281e+00,-6.310869216918945312e+00,-6.403118610382080078e+00,-6.472214698791503906e+00,-6.280523300170898438e+00,-6.383567333221435547e+00,-6.313219070434570312e+00,-6.310059547424316406e+00,-6.398132801055908203e+00,-6.415894985198974609e+00,-6.384572982788085938e+00,-6.441842555999755859e+00,-6.438104629516601562e+00,-6.331078529357910156e+00,-6.410093307495117188e+00,-6.302982330322265625e+00,-6.312292575836181641e+00,-6.369482994079589844e+00,nan,-6.233206748962402344e+00,-6.261380672454833984e+00,-6.233334064483642578e+00,-6.270767211914062500e+00
nan,-8.725155830383300781e+00,-8.677491188049316406e+00,-8.689914703369140625e+00,-8.721060752868652344e+00,-8.627800941467285156e+00,-7.949567794799804688e+00,-8.582786560058593750e+00,-8.753841400146484375e+00,-8.520586967468261719e+00,-8.570053100585937500e+00,-8.404746055603027344e+00,-8.523738861083984375e+00,-8.384919166564941406e+00,-8.429635047912597656e+00,-7.722118377685546875e+00,-8.344163894653320312e+00,-7.556073188781738281e+00,-8.252548217773437500e+00,-7.991193771362304688e+00,-8.187616348266601562e+00,-8.170078277587890625e+00,-8.094830513000488281e+00,-8.037524223327636719e+00,-7.964568614959716797e+00,-7.984453201293945312e+00,-7.870913982391357422e+00,-7.810348033905029297e+00,-7.784732818603515625e+00,-7.806680202484130859e+00,-7.755363464355468750e+00,-7.692911148071289062e+00,-7.689891338348388672e+00,-7.602499008178710938e+00,-7.529922485351562500e+00,-7.515924930572509766e+00,-7.542507648468017578e+00,-7.520313739776611328e+00,-7.491676330566406250e+00,-7.428605079650878906e+00,-7.439746856689453125e+00,-7.379204273223876953e+00,-7.460172176361083984e+00,-7.532735824584960938e+00,-7.018612384796142578e+00,-7.459002494812011719e+00,-6.914339542388916016e+00,-6.916305541992187500e+00,-6.916891098022460938e+00,-6.564059257507324219e+00,-6.862282276153564453e+00,-6.863062381744384766e+00,-6.822494029998779297e+00,-6.843346595764160156e+00,-6.828086853027343750e+00,-6.904644489288330078e+00,-6.903851509094238281e+00,-6.920460224151611328e+00,-6.925706863403320312e+00,-6.649430274963378906e+00,-6.654727935791015625e+00,-6.662435531616210938e+00,-6.664770603179931641e+00,-6.664457798004150391e+00,-6.683503627777099609e+00,-6.646239280700683594e+00,-6.676905155181884766e+00,-6.620148658752441406e+00,-6.693054199218750000e+00,-6.695754528045654297e+00,-6.596982002258300781e+00,-6.698740005493164062e+00,-6.702409267425537109e+00,-6.699293613433837891e+00,-6.670385360717773438e+00,-6.750657081604003906e+00,-6.665152549743652344e+00,-6.663558959960937500e+00,-6.649749279022216797e+00,-6.632149696350097656e+00,-6.687086105346679688e+00,-6.629238128662109375e+00,-6.487524986267089844e+00,-6.488160133361816406e+00,-6.387628555297851562e+00,nan,-6.570861816406250000e+00,-6.881652355194091797e+00,-6.507331848144531250e+00,-6.529409408569335938e+00,-6.537154197692871094e+00,-6.566417694091796875e+00,-6.345545291900634766e+00,-6.323612689971923828e+00,nan,-6.470652580261230469e+00,-6.485754966735839844e+00,-6.566307067871093750e+00,-6.563741683959960938e+00,-6.555911064147949219e+00,-6.546609401702880859e+00,-6.535965919494628906e+00,-6.545817852020263672e+00,-6.505802154541015625e+00,-6.609922409057617188e+00,-6.593788623809814453e+00,-6.598430633544921875e+00,-6.606575489044189453e+00,-6.473443508148193359e+00,-6.558494091033935547e+00,nan,-6.992740631103515625e+00,-6.926706790924072266e+00,-6.586612224578857422e+00,nan,-6.617658615112304688e+00,-6.507973194122314453e+00,-6.960483551025390625e+00,nan,-6.369165420532226562e+00,-6.459547996520996094e+00,-6.520333766937255859e+00,-6.505482673645019531e+00,-6.485516071319580078e+00,-6.461878776550292969e+00,-6.449644565582275391e+00,-6.413105964660644531e+00,-6.407399177551269531e+00,-6.380848884582519531e+00,-6.364084243774414062e+00,nan,-6.350361824035644531e+00,nan,-6.297443389892578125e+00,nan,nan,nan,-6.304882049560546875e+00,-6.559051036834716797e+00,-6.557625293731689453e+00,-6.485745906829833984e+00,-6.652893066406250000e+00,-6.592591762542724609e+00,-6.226702213287353516e+00,-6.218606948852539062e+00,-6.292152404785156250e+00,-6.378082275390625000e+00,-6.379039287567138672e+00,-6.363477230072021484e+00,-6.329523086547851562e+00,-6.341615676879882812e+00,-6.370334148406982422e+00,-6.396572113037109375e+00,-6.324399948120117188e+00,-6.313342571258544922e+00,-6.347856521606445312e+00,-6.350462913513183594e+00,-6.361487865447998047e+00,-6.372538566589355469e+00,-6.374896049499511719e+00,-6.365155696868896484e+00,nan,nan,nan,nan
